0,1,2,3,4,5,6,7,8,9,10,11,12,13,14,15,16,17,18,19,20,21,22,23,24,25,26,27,28,29,30,31,32,33,34,35,36,37,38,39,40,41,42,43,44,45,46,47,48,49,50,51,52,53,54,55,56,57,58,59,60,61,62,63,64,65,66,67,68,69,70,71,72,73,74,75,76,77,78,79,80,81,82,83,84,85,86,87,88,89,90,91,92,93,94,95,96,97,98,99,100,101,102,103,104,105,106,107,108,109,110,111,112,113,114,115,116,117,118,119,120,121,122,123,124,125,126,127,128,129,130,131,132,133,134,135,136,137,138,139,140,141,142,143,144,145,146,147,148,149,150,151,152,153,154,155,156,157,158,159,160,161,162,163,164,165,166,167,168,169,170,171,172,173,174,175,176,177,178,179,180,181,182,183,184,185,186,187,188,189,190,191,192,193,194,195,196,197,198,199,200,201,202,203,204,205,206,207,208,209,210,211,212,213,214,215,216,217,218,219,220,221,222,223,224,225,226,227,228,229,230,231,232,233,234,235,236,237,238,239,240,241,242,243,244,245,246,247,248,249,250,251,252,253,254,255,256,257,258,259,260,261,262,263,264,265,266,267,268,269,270,271,272,273,274,275,276,277,278,279,280,281,282,283,284,285,286,287,288,289,290,291,292,293,294,295,296,297,298,299,300,301,302,303,304,305,306,307,308,309,310,311,312,313,314,315,316,317,318,319,320,321,322,323,324,325,326,327,328,329,330,331,332,333,334,335,336,337,338,339,340,341,342,343,344,345,346,347,348,349,350,351,352,353,354,355,356,357,358,359
1.65514,1.6651,1.64738,1.65135,1.65914,1.65833,1.67575,1.67223,1.6585,1.65965,1.66274,1.67149,1.69472,1.69686,1.71658,1.71477,1.70157,1.7301,1.72565,1.73313,2.04999,2.07516,2.07855,2.11386,2.1205,2.14287,2.14788,2.1773,2.19588,2.21055,2.244,2.24573,2.27249,2.29591,2.34137,2.36312,2.39813,2.41818,2.43705,2.48657,2.53357,2.50707,2.45631,2.41155,2.36552,2.34833,2.39621,2.4136,2.48136,2.47101,2.44143,2.42432,2.38688,2.34986,2.30808,2.27774,2.25112,2.23974,2.20453,2.17209,2.16176,2.14144,2.12648,2.09211,2.08925,2.05851,2.04103,2.02383,2.02226,2.00304,2.00989,1.97462,1.99184,1.96203,1.93806,1.93164,1.91434,1.9185,1.90469,1.89844,1.9005,1.87316,1.88276,1.88864,1.88398,1.89198,1.86503,1.88838,1.89043,1.86212,1.86394,1.86883,1.88417,1.88124,1.87591,1.87689,1.8999,1.89043,1.89124,1.89019,1.90664,1.91273,1.92464,1.92373,inf,inf,inf,inf,inf,inf,inf,inf,inf,inf,inf,inf,inf,inf,inf,inf,inf,inf,inf,inf,inf,inf,inf,inf,inf,inf,inf,inf,inf,inf,inf,inf,inf,inf,inf,inf,inf,inf,inf,inf,inf,inf,inf,inf,inf,inf,inf,inf,inf,inf,inf,inf,inf,inf,inf,inf,inf,inf,inf,inf,inf,inf,inf,inf,inf,inf,inf,inf,inf,inf,inf,inf,inf,inf,inf,inf,inf,inf,inf,inf,inf,inf,inf,inf,inf,inf,inf,inf,inf,inf,inf,inf,inf,inf,inf,inf,inf,inf,inf,inf,inf,inf,inf,inf,inf,inf,inf,inf,inf,inf,inf,inf,inf,inf,inf,inf,inf,inf,inf,inf,inf,inf,inf,inf,inf,inf,inf,inf,inf,inf,inf,inf,inf,inf,inf,inf,inf,inf,inf,inf,inf,inf,inf,inf,inf,inf,inf,inf,inf,inf,inf,inf,inf,inf,inf,inf,inf,inf,inf,inf,inf,inf,inf,8.03826,8.00661,8.03141,8.02351,8.02293,8.0321,8.03992,8.0497,8.06327,8.05728,8.0979,8.12939,8.12635,8.17518,8.19363,8.23867,8.265,8.29184,8.34291,8.37819,8.44087,8.4805,8.52376,8.57352,8.64414,8.70259,8.7736,inf,inf,inf,inf,inf,inf,inf,inf,inf,inf,2.89251,2.81694,2.76402,2.70484,2.647,2.59048,2.54366,2.48406,2.44195,2.37995,2.3305,2.33578,2.3092,2.36999,2.41366,2.4522,2.49107,2.47944,2.44285,2.38543,2.37002,2.35563,2.31853,2.30259,2.25651,2.23637,2.19877,2.18535,2.17655,2.16982,2.12223,2.1157,2.10402,2.10621,2.08519,2.05584,2.04441,2.04116,1.73429,1.72035,1.70868,1.71056,1.70785,1.69871,1.69216,1.67635,1.66646,1.67853,1.65351,1.66977,1.66427,1.66464,1.64723,1.65814,1.65091,1.64702
1.64433,1.64986,1.6639,1.64099,1.62429,1.64147,1.62961,1.63758,1.64354,1.63721,1.6352,1.64092,1.65355,1.65238,1.65881,1.66215,1.66527,1.66316,1.6562,1.67132,1.69036,1.69209,1.68503,1.72661,1.71077,2.00787,2.0234,2.04904,2.06848,2.08148,2.08822,2.12174,2.12975,2.13948,2.16193,2.1798,2.2098,2.24796,2.26628,2.29163,2.31036,2.3194,2.36481,2.40041,2.43014,2.45844,2.507,2.45095,2.41251,2.36127,2.31765,2.30274,2.37122,2.37841,2.43001,2.43885,2.40287,2.37751,2.32684,2.31758,2.29281,2.24243,2.22355,2.18686,2.15043,2.15605,2.13348,2.10492,2.06157,2.07769,2.02701,2.03437,2.00206,1.98153,1.96753,1.9625,1.94684,1.93712,1.91768,1.90737,1.89737,1.87568,1.87791,1.87151,1.87023,1.88051,1.86861,1.85704,1.84898,1.8457,1.83708,1.82591,1.84228,1.8469,1.8371,1.81728,1.84625,1.8338,1.82038,1.82458,1.82297,1.82878,1.82669,1.84517,1.84232,1.8462,1.84582,1.86739,1.86154,1.87775,1.88246,inf,inf,inf,inf,inf,inf,inf,inf,inf,inf,inf,inf,inf,inf,inf,inf,inf,inf,inf,inf,inf,inf,inf,inf,inf,inf,inf,inf,inf,inf,inf,inf,inf,inf,inf,inf,inf,inf,inf,inf,inf,inf,inf,inf,inf,inf,inf,inf,inf,inf,inf,inf,inf,inf,inf,inf,inf,inf,inf,inf,inf,inf,inf,inf,inf,inf,inf,inf,inf,inf,inf,inf,inf,inf,inf,inf,inf,inf,inf,inf,inf,inf,inf,inf,inf,inf,inf,inf,inf,inf,inf,inf,inf,inf,inf,inf,inf,inf,inf,inf,inf,inf,inf,inf,inf,inf,inf,inf,inf,inf,inf,inf,inf,inf,inf,inf,inf,inf,inf,inf,inf,inf,inf,inf,inf,inf,inf,inf,inf,inf,inf,inf,inf,inf,inf,inf,inf,inf,inf,inf,inf,inf,inf,inf,inf,inf,inf,inf,inf,inf,inf,inf,inf,inf,inf,inf,inf,inf,inf,inf,inf,inf,8.07902,8.04933,8.06564,8.07178,8.07719,8.07571,8.07478,8.08753,8.10017,8.09804,8.14245,8.1647,8.1762,8.1844,8.22647,8.27003,8.31369,8.33301,8.36523,8.40756,8.44909,8.50031,8.54317,8.62926,8.65838,8.73923,8.7784,inf,inf,inf,inf,inf,inf,inf,inf,inf,inf,2.91089,2.85419,2.78083,2.7104,2.65303,2.58696,2.53617,2.47054,2.4399,2.38462,2.35648,2.30716,2.35426,2.41655,2.43255,2.5112,2.4893,2.42999,2.42886,2.41658,2.34879,2.32713,2.3134,2.30024,2.24424,2.22788,2.18845,2.1769,2.15589,2.14863,2.13102,2.10588,2.06858,2.08307,2.06084,2.04904,2.02901,1.7268,1.70702,1.7245,1.7124,1.70751,1.69991,1.69234,1.68909,1.67345,1.67357,1.67139,1.66132,1.64685
1.6888,1.6758,1.66842,1.66988,1.66128,1.65367,1.66886,1.64935,1.64666,1.64464,1.65373,1.62731,1.64361,1.6291,1.65037,1.64677,1.65308,1.65322,1.64976,1.65386,1.65254,1.66418,1.66551,1.65795,1.67555,1.67095,1.68707,1.6951,1.71248,1.7047,1.70492,1.71082,2.03954,2.03988,2.05673,2.06567,2.08556,2.10651,2.09992,2.12841,2.16186,2.17927,2.17897,2.2145,2.25334,2.25251,2.27504,2.31427,2.36298,2.37274,2.3918,2.43477,2.46067,2.50585,2.45086,2.43003,2.34913,2.31143,2.31366,2.3505,2.39706,2.43534,2.43669,2.39472,2.35975,2.33167,2.30036,2.26232,2.23716,2.19154,2.18911,2.17342,2.14439,2.10302,2.10459,2.07905,2.06443,2.04297,2.02702,2.01736,1.99144,1.96852,1.97106,1.97123,1.93769,1.90207,1.91599,1.90009,1.89318,1.8961,1.89452,1.862,1.86587,1.865,1.8486,1.84926,1.83901,1.84848,1.85895,1.83388,1.83747,1.82626,1.84068,1.84266,1.85659,1.83469,1.84677,1.84126,1.82372,1.82463,1.84228,1.8372,1.86829,1.84699,1.88028,1.87148,1.88072,1.8932,inf,inf,inf,inf,inf,inf,inf,inf,inf,inf,inf,inf,inf,inf,inf,inf,inf,inf,inf,inf,inf,inf,inf,inf,inf,inf,inf,inf,inf,inf,inf,inf,inf,inf,inf,inf,inf,inf,inf,inf,inf,inf,inf,inf,inf,inf,inf,inf,inf,inf,inf,inf,inf,inf,inf,inf,inf,inf,inf,inf,inf,inf,inf,inf,inf,inf,inf,inf,inf,inf,inf,inf,inf,inf,inf,inf,inf,inf,inf,inf,inf,inf,inf,inf,inf,inf,inf,inf,inf,inf,inf,inf,inf,inf,inf,inf,inf,inf,inf,inf,inf,inf,inf,inf,inf,inf,inf,inf,inf,inf,inf,inf,inf,inf,inf,inf,inf,inf,inf,inf,inf,inf,inf,inf,inf,inf,inf,inf,inf,inf,inf,inf,inf,inf,inf,inf,inf,inf,inf,inf,inf,inf,inf,inf,inf,inf,inf,inf,inf,inf,inf,inf,inf,inf,inf,inf,inf,inf,inf,inf,inf,inf,8.07566,8.07728,8.05467,8.05863,8.07579,8.07792,8.0744,8.09603,8.12055,8.1162,8.1303,8.15959,8.17554,8.23183,8.22823,8.29458,8.31273,8.33771,8.37547,8.41527,8.44116,8.51624,8.55703,8.60259,8.67852,8.74657,8.81916,inf,inf,inf,inf,inf,inf,inf,inf,inf,inf,2.90264,2.81272,2.75108,2.68523,2.63597,2.57786,2.51677,2.46245,2.43773,2.38752,2.33344,2.31754,2.37395,2.41787,2.46338,2.52109,2.46279,2.46903,2.41349,2.38298,2.35587,2.32224,2.31404,2.26268,2.24655,2.21833,2.20847,2.16767,2.15508,2.13158,2.12113,2.10374,2.10091,2.07845,2.05942,2.05095,1.76347,1.72543,1.72322,1.721,1.70209,1.71036,1.68989
1.58103,1.58108,1.58049,1.57624,1.558,1.5611,1.55984,1.55991,1.55763,1.56036,1.57572,1.55703,1.53707,1.52471,1.53382,1.53761,1.55102,1.535,1.54005,1.53291,1.52499,1.55745,1.54741,1.55999,1.5543,1.57491,1.56724,1.57118,1.5867,1.58895,1.58884,1.60077,1.60397,1.61648,1.626,1.95097,1.96467,1.9824,1.97639,2.00253,2.01017,2.02795,2.03784,2.08043,2.10437,2.10925,2.14032,2.1795,2.18296,2.23311,2.25347,2.27267,2.31745,2.3409,2.372,2.40745,2.43789,2.37324,2.33463,2.2767,2.25389,2.26448,2.31119,2.35646,2.39874,2.3991,2.33473,2.33308,2.29301,2.25836,2.23504,2.23125,2.18776,2.16491,2.12951,2.12527,2.09831,2.09347,2.05578,2.04053,2.05603,2.01032,2.01385,1.96438,1.96309,1.97119,1.93698,1.94446,1.92048,1.90782,1.91653,1.90563,1.88212,1.88003,1.88765,1.87228,1.88271,1.87279,1.86818,1.88235,1.85481,1.86194,1.85364,1.84356,1.86187,1.84148,1.86245,1.8822,1.85289,1.87746,1.85236,1.87523,1.88637,1.88255,1.88779,1.90168,1.92427,1.89744,1.92911,1.93583,1.91677,inf,inf,inf,inf,inf,inf,inf,inf,inf,inf,inf,inf,inf,inf,inf,inf,inf,inf,inf,inf,inf,inf,inf,inf,inf,inf,inf,inf,inf,inf,inf,inf,inf,inf,inf,inf,inf,inf,inf,inf,inf,inf,inf,inf,inf,inf,inf,inf,inf,inf,inf,inf,inf,inf,inf,inf,inf,inf,inf,inf,inf,inf,inf,inf,inf,inf,inf,inf,inf,inf,inf,inf,inf,inf,inf,inf,inf,inf,inf,inf,inf,inf,inf,inf,inf,inf,inf,inf,inf,inf,inf,inf,inf,inf,inf,inf,inf,inf,inf,inf,inf,inf,inf,inf,inf,inf,inf,inf,inf,inf,inf,inf,inf,inf,inf,inf,inf,inf,inf,inf,inf,inf,inf,inf,inf,inf,inf,inf,inf,inf,inf,inf,inf,inf,inf,inf,inf,inf,inf,inf,inf,inf,inf,inf,inf,inf,inf,inf,inf,inf,inf,inf,inf,inf,inf,inf,inf,inf,inf,8.04376,8.04225,8.03742,8.05085,8.04774,8.05061,8.06835,8.05576,8.0793,8.09717,8.08972,8.0948,8.1342,8.16681,8.16436,8.2155,8.23539,8.28162,8.30717,8.3676,8.3838,8.45621,8.50772,8.54441,8.61724,8.64727,8.7422,inf,inf,inf,inf,inf,inf,inf,inf,inf,2.84638,2.7605,2.67915,2.63739,2.55583,2.50485,2.46735,2.41165,2.34932,2.2987,2.2657,2.21939,2.258,2.29621,2.34746,2.40793,2.42001,2.39063,2.33894,2.30306,2.3028,2.26829,2.22697,2.19903,2.1792,2.14457,2.12595,2.08077,2.06817,2.05895,2.03769,2.0309,2.01359,1.9813,1.96479,1.96866,1.95213,1.93603,1.6211,1.63313,1.61261,1.60061,1.58617,1.58516
1.52596,1.53757,1.50628,1.51102,1.50452,1.50822,1.50684,1.49603,1.48204,1.49349,1.48133,1.4757,1.47419,1.47706,1.47958,1.47961,1.47089,1.46334,1.47534,1.48376,1.49192,1.48299,1.49487,1.48981,1.48758,1.51075,1.49733,1.52542,1.5182,1.53645,1.5206,1.54269,1.54552,1.56635,1.57802,1.59197,1.5902,1.89807,1.90203,1.9369,1.94357,1.95977,1.97551,1.97904,2.00437,2.03714,2.03966,2.07166,2.08986,2.12542,2.15311,2.17948,2.20642,2.24615,2.26855,2.32717,2.342,2.37847,2.39884,2.34616,2.29286,2.26905,2.22408,2.2086,2.28254,2.30392,2.38116,2.35966,2.31845,2.30854,2.27716,2.23244,2.22681,2.17984,2.1872,2.14591,2.1339,2.08541,2.09616,2.0833,2.04231,2.03941,2.02074,2.01709,1.99334,1.98831,1.96408,1.95356,1.94796,1.94922,1.93703,1.90304,1.91585,1.91469,1.91028,1.89249,1.90662,1.88607,1.88873,1.89722,1.88069,1.86762,1.87463,1.87314,1.86683,1.87462,1.87382,1.88899,1.87509,1.85396,1.88828,1.87726,1.88546,1.8831,1.89606,1.90353,1.90202,1.917,1.93246,1.94166,1.93525,1.96347,1.96641,inf,inf,inf,inf,inf,inf,inf,inf,inf,inf,inf,inf,inf,inf,inf,inf,inf,inf,inf,inf,inf,inf,inf,inf,inf,inf,inf,inf,inf,inf,inf,inf,inf,inf,inf,inf,inf,inf,inf,inf,inf,inf,inf,inf,inf,inf,inf,inf,inf,inf,inf,inf,inf,inf,inf,inf,inf,inf,inf,inf,inf,inf,inf,inf,inf,inf,inf,inf,inf,inf,inf,inf,inf,inf,inf,inf,inf,inf,inf,inf,inf,inf,inf,inf,inf,inf,inf,inf,inf,inf,inf,inf,inf,inf,inf,inf,inf,inf,inf,inf,inf,inf,inf,inf,inf,inf,inf,inf,inf,inf,inf,inf,inf,inf,inf,inf,inf,inf,inf,inf,inf,inf,inf,inf,inf,inf,inf,inf,inf,inf,inf,inf,inf,inf,inf,inf,inf,inf,inf,inf,inf,inf,inf,inf,inf,inf,inf,inf,inf,inf,inf,inf,inf,inf,inf,inf,inf,8.04753,8.04989,8.02826,8.04133,8.01761,8.02872,8.02304,8.02172,8.04864,8.05996,8.07415,8.09496,8.10327,8.11499,8.16263,8.18497,8.19866,8.22343,8.27091,8.32524,8.35069,8.40737,8.44718,8.50796,8.5576,8.6084,8.66706,inf,inf,inf,inf,inf,inf,inf,inf,inf,2.77964,2.70386,2.63047,2.55649,2.4855,2.44849,2.38744,2.31475,2.26151,2.24156,2.21428,2.17171,2.2107,2.26353,2.28389,2.34304,2.36198,2.33934,2.29063,2.24703,2.22506,2.18784,2.16838,2.12506,2.12237,2.08127,2.06357,2.04347,2.00664,2.00915,1.97016,1.95931,1.95399,1.93697,1.92317,1.89975,1.88889,1.88539,1.56418,1.54514,1.54858,1.54298,1.54023,1.5322
1.4834,1.49808,1.48628,1.47934,1.47565,1.48866,1.4746,1.48422,1.48707,1.50349,1.46965,1.49775,1.49984,1.49117,1.49588,1.49921,1.51372,1.51581,1.50434,1.52806,1.52576,1.54716,1.55779,1.55668,1.554,1.58311,1.59963,1.5995,1.6242,1.62941,1.6573,1.98387,2.00158,2.00494,2.01872,2.02873,2.05635,2.09017,2.10629,2.12704,2.16249,2.19589,2.21829,2.2463,2.26791,2.3145,2.3469,2.3938,2.43818,2.47356,2.47952,2.42959,2.38572,2.35141,2.31589,2.33014,2.38384,2.42162,2.49365,2.44892,2.41066,2.39231,2.35592,2.34021,2.30808,2.2918,2.25908,2.22986,2.21319,2.20184,2.20255,2.17422,2.15106,2.11723,2.1241,2.11886,2.1014,2.08603,2.10135,2.06933,2.04014,2.03722,2.02572,2.03093,2.01456,2.02971,1.99636,1.99837,2.00504,2.00725,2.00633,1.99503,2.01505,1.99654,1.98814,2.00991,1.98357,1.98559,1.99422,1.9955,2.0149,2.00309,2.01606,2.00714,2.03109,2.03313,2.03054,2.0475,2.05099,2.05428,2.06819,2.08681,inf,inf,inf,inf,inf,inf,inf,inf,inf,inf,inf,inf,inf,inf,inf,inf,inf,inf,inf,inf,inf,inf,inf,inf,inf,inf,inf,inf,inf,inf,inf,inf,inf,inf,inf,inf,inf,inf,inf,inf,inf,inf,inf,inf,inf,inf,inf,inf,inf,inf,inf,inf,inf,inf,inf,inf,inf,inf,inf,inf,inf,inf,inf,inf,inf,inf,inf,inf,inf,inf,inf,inf,inf,inf,inf,inf,inf,inf,inf,inf,inf,inf,inf,inf,inf,inf,inf,inf,inf,inf,inf,inf,inf,inf,inf,inf,inf,inf,inf,inf,inf,inf,inf,inf,inf,inf,inf,inf,inf,inf,inf,inf,inf,inf,inf,inf,inf,inf,inf,inf,inf,inf,inf,inf,inf,inf,inf,inf,inf,inf,inf,inf,inf,inf,inf,inf,inf,inf,inf,inf,inf,inf,inf,inf,inf,inf,inf,inf,inf,inf,inf,inf,inf,inf,inf,inf,inf,inf,7.92365,7.92613,7.907,7.90582,7.8986,7.90478,7.90328,7.92646,7.93816,7.94789,7.95073,7.98958,7.98578,8.00927,8.02297,8.06609,8.08953,8.12191,8.14006,8.18304,8.21527,8.29051,8.32105,8.37576,8.41778,8.46165,8.53242,8.60811,inf,inf,inf,inf,inf,inf,inf,inf,inf,inf,2.6475,2.57987,2.5014,2.4526,2.41671,2.35288,2.29324,2.27992,2.20567,2.17058,2.12627,2.10646,2.12717,2.14906,2.19388,2.24331,2.27634,2.27594,2.23416,2.19729,2.17301,2.13003,2.11996,2.11278,2.06282,2.06106,2.02738,1.98651,1.98773,1.96343,1.94398,1.95554,1.92539,1.89861,1.88903,1.88839,1.87581,1.85124,1.85762,1.85712,1.55357,1.5243,1.51784,1.53986,1.51595,1.51013,1.50435,1.5045,1.48603,1.48041,1.48717,1.50853
1.38134,1.37378,1.39953,1.35792,1.39484,1.40225,1.36011,1.38007,1.36746,1.37357,1.37191,1.38274,1.3585,1.38399,1.38233,1.39143,1.40445,1.39305,1.39097,1.39384,1.41083,1.40441,1.45088,1.42803,1.46376,1.45778,1.43983,1.49917,1.50041,1.48841,1.49531,1.53323,1.52173,1.52431,1.89171,1.87673,1.91129,1.94805,1.95429,1.97546,1.98836,2.01337,2.0509,2.09139,2.11609,2.14159,2.15019,2.18733,2.2197,2.25018,2.31495,2.35292,2.40243,2.41255,2.36737,2.33296,2.30045,2.26765,2.25273,2.30665,2.36799,2.42504,2.3856,2.38966,2.3331,2.32938,2.30148,2.2728,2.25041,2.25249,2.20146,2.20821,2.1861,2.14856,2.15174,2.13177,2.11485,2.10752,2.09817,2.09086,2.06798,2.05916,2.06465,2.02493,2.03711,2.02814,2.02801,2.01809,1.99142,2.02297,2.0147,2.00571,1.9869,2.01435,2.01575,2.00891,1.98167,2.01525,1.97759,2.00263,2.00296,2.01714,2.00964,2.00918,2.00891,2.01819,2.03107,2.05628,2.04644,2.04881,2.05327,2.08812,2.09676,2.09571,2.10666,2.13391,inf,inf,inf,inf,inf,inf,inf,inf,inf,inf,inf,inf,inf,inf,inf,inf,inf,inf,inf,inf,inf,inf,inf,inf,inf,inf,inf,inf,inf,inf,inf,inf,inf,inf,inf,inf,inf,inf,inf,inf,inf,inf,inf,inf,inf,inf,inf,inf,inf,inf,inf,inf,inf,inf,inf,inf,inf,inf,inf,inf,inf,inf,inf,inf,inf,inf,inf,inf,inf,inf,inf,inf,inf,inf,inf,inf,inf,inf,inf,inf,inf,inf,inf,inf,inf,inf,inf,inf,inf,inf,inf,inf,inf,inf,inf,inf,inf,inf,inf,inf,inf,inf,inf,inf,inf,inf,inf,inf,inf,inf,inf,inf,inf,inf,inf,inf,inf,inf,inf,inf,inf,inf,inf,inf,inf,inf,inf,inf,inf,inf,inf,inf,inf,inf,inf,inf,inf,inf,inf,inf,inf,inf,inf,inf,inf,inf,inf,inf,inf,inf,inf,inf,inf,inf,7.9349,7.90552,7.90508,7.89627,7.90423,7.89168,7.90124,7.89897,7.90775,7.9353,7.93236,7.93946,7.96701,7.97894,8.02004,8.01742,8.04074,8.07369,8.10395,8.13261,8.18633,8.23597,8.2701,8.30463,8.34944,8.39306,8.48426,8.54063,inf,inf,inf,inf,inf,inf,inf,inf,inf,2.55383,2.51231,2.44615,2.37218,2.32458,2.27343,2.23031,2.1653,2.13147,2.06776,2.04807,2.02098,2.05112,2.08154,2.10118,2.15317,2.2061,2.1722,2.14023,2.10954,2.07544,2.07138,2.04516,2.00108,1.97553,1.96143,1.95897,1.92992,1.92558,1.88444,1.86661,1.8735,1.82919,1.81132,1.79868,1.80838,1.78844,1.76594,1.76055,1.74865,1.73597,1.72928,1.42991,1.40932,1.4172,1.39249,1.39495,1.39502,1.39141,1.38418,1.39378,1.39582,1.36546
1.38374,1.40836,1.37118,1.38226,1.40303,1.38666,1.40245,1.41286,1.39491,1.40338,1.40667,1.41505,1.40555,1.39441,1.41174,1.41049,1.43946,1.44907,1.435,1.4704,1.45887,1.45754,1.49077,1.4955,1.4883,1.50723,1.53522,1.5141,1.54958,1.57016,1.57852,1.59883,1.61496,1.64194,1.63765,1.66886,1.66746,1.70475,2.0798,2.10198,2.12232,2.14533,2.18653,2.22147,2.26083,2.28929,2.31356,2.3702,2.40035,2.45539,2.53709,2.57712,2.62531,2.62473,2.56016,2.55657,2.50871,2.49022,2.51257,2.56508,2.65539,2.64041,2.59909,2.58904,2.5631,2.53174,2.52977,2.50954,2.47695,2.46013,2.45235,2.42786,2.41255,2.39553,2.39781,2.36927,2.35381,2.35079,2.34398,2.32675,2.33236,2.33496,2.29329,2.29776,2.30218,2.27702,2.30338,2.28215,2.27113,2.27036,2.2694,2.29294,2.27219,2.26689,2.28322,2.2984,2.27341,2.27612,2.2895,2.28329,2.32624,2.31632,2.31021,2.32193,2.34304,2.33228,2.35633,2.37655,2.38007,inf,inf,inf,inf,inf,inf,inf,inf,inf,inf,inf,inf,inf,inf,inf,inf,inf,inf,inf,inf,inf,inf,inf,inf,inf,inf,inf,inf,inf,inf,inf,inf,inf,inf,inf,inf,inf,inf,inf,inf,inf,inf,inf,inf,inf,inf,inf,inf,inf,inf,inf,inf,inf,inf,inf,inf,inf,inf,inf,inf,inf,inf,inf,inf,inf,inf,inf,inf,inf,inf,inf,inf,inf,inf,inf,inf,inf,inf,inf,inf,inf,inf,inf,inf,inf,inf,inf,inf,inf,inf,inf,inf,inf,inf,inf,inf,inf,inf,inf,inf,inf,inf,inf,inf,inf,inf,inf,inf,inf,inf,inf,inf,inf,inf,inf,inf,inf,inf,inf,inf,inf,inf,inf,inf,inf,inf,inf,inf,inf,inf,inf,inf,inf,inf,inf,inf,inf,inf,inf,inf,inf,inf,inf,inf,inf,inf,inf,inf,inf,inf,inf,inf,inf,inf,inf,inf,inf,7.66177,7.6372,7.64833,7.63749,7.63056,7.61517,7.65307,7.63835,7.63954,7.64974,7.66835,7.66287,7.68925,7.71132,7.71705,7.73173,7.75282,7.79847,7.84213,7.86481,7.89315,7.92733,7.97758,8.0025,8.08292,8.12058,8.17598,8.24707,8.28825,inf,inf,inf,inf,inf,inf,inf,inf,inf,inf,inf,2.41255,2.35298,2.30683,2.25189,2.20361,2.15876,2.10713,2.06742,2.03924,1.98644,1.9576,1.94559,1.89546,1.85779,1.83377,1.83644,1.89984,1.92904,1.97906,2.03519,2.01875,2.01245,1.97099,1.98653,1.94231,1.93633,1.90949,1.89778,1.8613,1.84907,1.84724,1.8352,1.8106,1.7864,1.78208,1.78658,1.77701,1.76734,1.72543,1.7359,1.74492,1.72948,1.72619,1.69363,1.70191,1.6896,1.69644,1.70337,1.68567,1.6833,1.40063,1.36317,1.38633,1.38393
1.40714,1.38814,1.39358,1.40646,1.40234,1.38871,1.40227,1.40183,1.40537,1.41624,1.422,1.4102,1.42764,1.41966,1.41081,1.44625,1.44331,1.44912,1.46742,1.4751,1.47194,1.49902,1.50391,1.50927,1.518,1.52845,1.55223,1.53663,1.5683,1.58014,1.6124,1.60288,1.62084,1.64958,1.66443,1.66933,1.69694,1.73255,1.75047,2.0991,2.15775,2.17102,2.19239,2.25637,2.26566,2.32558,2.38333,2.4282,2.4514,2.5119,2.55357,2.58701,2.6673,2.71996,2.6684,2.62833,2.58798,2.58355,2.55399,2.62928,2.7198,2.74402,2.71319,2.67358,2.65756,2.65876,2.61177,2.60133,2.56225,2.56052,2.53285,2.52293,2.50707,2.47432,2.47403,2.44558,2.44923,2.43174,2.42369,2.41874,2.43031,2.39593,2.40852,2.39193,2.40229,2.37699,2.35844,2.36347,2.36001,2.35555,2.37734,2.37615,2.36909,2.36295,2.39133,2.38419,2.37432,2.38662,2.38764,2.39964,2.39163,2.39359,2.40919,2.42773,2.4381,2.44181,2.44031,2.47942,inf,inf,inf,inf,inf,inf,inf,inf,inf,inf,inf,inf,inf,inf,inf,inf,inf,inf,inf,inf,inf,inf,inf,inf,inf,inf,inf,inf,inf,inf,inf,inf,inf,inf,inf,inf,inf,inf,inf,inf,inf,inf,inf,inf,inf,inf,inf,inf,inf,inf,inf,inf,inf,inf,inf,inf,inf,inf,inf,inf,inf,inf,inf,inf,inf,inf,inf,inf,inf,inf,inf,inf,inf,inf,inf,inf,inf,inf,inf,inf,inf,inf,inf,inf,inf,inf,inf,inf,inf,inf,inf,inf,inf,inf,inf,inf,inf,inf,inf,inf,inf,inf,inf,inf,inf,inf,inf,inf,inf,inf,inf,inf,inf,inf,inf,inf,inf,inf,inf,inf,inf,inf,inf,inf,inf,inf,inf,inf,inf,inf,inf,inf,inf,inf,inf,inf,inf,inf,inf,inf,inf,inf,inf,inf,inf,inf,inf,inf,inf,inf,inf,inf,inf,inf,inf,inf,inf,inf,7.56155,7.53856,7.5275,7.52116,7.53089,7.53473,7.52861,7.53111,7.54807,7.56578,7.56804,7.58388,7.58576,7.63607,7.63634,7.68274,7.68349,7.74072,7.74321,7.78389,7.8411,7.85331,7.91003,7.94341,7.97849,8.05351,8.10106,8.16481,inf,inf,inf,inf,inf,inf,inf,inf,inf,inf,inf,inf,inf,2.32265,2.29192,2.2268,2.16383,2.12586,2.09986,2.04947,2.01593,1.98369,1.93318,1.90654,1.90035,1.84335,1.82183,1.80122,1.76605,1.79542,1.83428,1.91121,1.95386,1.99711,1.96931,1.95466,1.93031,1.91582,1.91603,1.88565,1.85242,1.84263,1.83666,1.82651,1.8155,1.79457,1.79181,1.76598,1.76463,1.73557,1.74254,1.73826,1.73437,1.72507,1.71722,1.7131,1.70023,1.70692,1.68531,1.69357,1.70869,1.68318,1.67469,1.65637,1.65695,1.38133
1.36478,1.36685,1.37771,1.37011,1.36847,1.37186,1.37139,1.40102,1.35918,1.38244,1.39783,1.38907,1.3845,1.39937,1.3982,1.38772,1.39546,1.40434,1.41678,1.42204,1.41038,1.41155,1.44483,1.43878,1.45032,1.44013,1.48063,1.46555,1.4868,1.52468,1.50988,1.51496,1.55111,1.57512,1.88735,1.91921,1.93356,1.94674,1.99142,1.99995,2.03876,2.04506,2.07379,2.11115,2.1411,2.17042,2.20454,2.25215,2.28413,2.33217,2.37323,2.40806,2.44411,2.40975,2.37175,2.32311,2.30047,2.26441,2.31346,2.37886,2.45133,2.41158,2.39438,2.39227,2.35394,2.33256,2.30913,2.28282,2.2559,2.25666,2.21962,2.22668,2.19606,2.18379,2.16269,2.15814,2.13151,2.12583,2.12491,2.10939,2.08614,2.08544,2.06836,2.07189,2.06863,2.07633,2.07661,2.05225,2.03159,2.05769,2.04657,2.05295,2.02758,2.03503,2.01988,2.03864,2.03087,2.03323,2.02708,2.03909,2.03598,2.04922,2.05917,2.0552,2.07462,2.0728,2.07969,2.09018,2.10702,2.0945,2.11201,2.14578,2.13749,2.14641,inf,inf,inf,inf,inf,inf,inf,inf,inf,inf,inf,inf,inf,inf,inf,inf,inf,inf,inf,inf,inf,inf,inf,inf,inf,inf,inf,inf,inf,inf,inf,inf,inf,inf,inf,inf,inf,inf,inf,inf,inf,inf,inf,inf,inf,inf,inf,inf,inf,inf,inf,inf,inf,inf,inf,inf,inf,inf,inf,inf,inf,inf,inf,inf,inf,inf,inf,inf,inf,inf,inf,inf,inf,inf,inf,inf,inf,inf,inf,inf,inf,inf,inf,inf,inf,inf,inf,inf,inf,inf,inf,inf,inf,inf,inf,inf,inf,inf,inf,inf,inf,inf,inf,inf,inf,inf,inf,inf,inf,inf,inf,inf,inf,inf,inf,inf,inf,inf,inf,inf,inf,inf,inf,inf,inf,inf,inf,inf,inf,inf,inf,inf,inf,inf,inf,inf,inf,inf,inf,inf,inf,inf,inf,inf,inf,inf,inf,inf,inf,inf,inf,inf,inf,inf,inf,7.89776,7.88576,7.88594,7.889,7.86342,7.86162,7.87268,7.88017,7.8836,7.91313,7.90358,7.909,7.93737,7.96109,7.98034,7.98265,8.00922,8.05132,8.10411,8.11639,8.16053,8.21417,8.24545,8.29025,8.35525,8.40169,8.45572,8.50409,inf,inf,inf,inf,inf,inf,inf,inf,inf,2.53897,2.49498,2.41268,2.36618,2.29329,2.26313,2.2041,2.15042,2.11066,2.08073,2.03929,1.98482,2.00113,2.03102,2.07175,2.08809,2.14092,2.16003,2.14317,2.11069,2.09661,2.03175,2.01517,2.00331,1.96474,1.97362,1.93123,1.92207,1.8883,1.8648,1.85713,1.83798,1.83613,1.80229,1.79625,1.79771,1.7538,1.76194,1.75059,1.72908,1.73112,1.72077,1.69511,1.42695,1.40575,1.39983,1.39712,1.38222,1.39163,1.39252,1.37813,1.39018,1.36332,1.39357
1.3441,1.35246,1.35664,1.35765,1.36133,1.40302,1.37436,1.39619,1.39847,1.41697,1.41173,1.43444,1.44041,1.45287,1.46366,1.46402,1.48031,1.50546,1.52612,1.52918,1.53433,1.88374,1.9091,1.94269,1.96652,1.97948,2.00189,2.04941,2.07813,2.09499,2.12882,2.1737,2.20003,2.24985,2.28281,2.3386,2.37997,2.42216,2.45123,2.41393,2.37004,2.35036,2.30292,2.28783,2.31941,2.41967,2.45884,2.44097,2.41544,2.39192,2.39539,2.35406,2.33607,2.3268,2.2976,2.28382,2.24359,2.24452,2.23583,2.2136,2.21376,2.19923,2.17956,2.16944,2.1534,2.15396,2.15105,2.12918,2.11013,2.10841,2.11289,2.10739,2.09656,2.08962,2.09911,2.09164,2.08223,2.08042,2.10639,2.07415,2.08189,2.09345,2.09267,2.09337,2.09292,2.10081,2.12083,2.10701,2.11745,2.14594,2.13705,2.14937,2.1537,2.17558,2.17514,2.17546,2.18284,2.20844,2.2146,inf,inf,inf,inf,inf,inf,inf,inf,inf,inf,inf,inf,inf,inf,inf,inf,inf,inf,inf,inf,inf,inf,inf,inf,inf,inf,inf,inf,inf,inf,inf,inf,inf,inf,inf,inf,inf,inf,inf,inf,inf,inf,inf,inf,inf,inf,inf,inf,inf,inf,inf,inf,inf,inf,inf,inf,inf,inf,inf,inf,inf,inf,inf,inf,inf,inf,inf,inf,inf,inf,inf,inf,inf,inf,inf,inf,inf,inf,inf,inf,inf,inf,inf,inf,inf,inf,inf,inf,inf,inf,inf,inf,inf,inf,inf,inf,inf,inf,inf,inf,inf,inf,inf,inf,inf,inf,inf,inf,inf,inf,inf,inf,inf,inf,inf,inf,inf,inf,inf,inf,inf,inf,inf,inf,inf,inf,inf,inf,inf,inf,inf,inf,inf,inf,inf,inf,inf,inf,inf,inf,inf,inf,inf,inf,inf,inf,inf,inf,inf,inf,inf,inf,inf,inf,7.82748,7.81732,7.8113,7.80453,7.82493,7.81421,7.81259,7.82095,7.8253,7.8215,7.83161,7.84969,7.86234,7.88029,7.91507,7.92949,7.97427,7.98612,8.0305,8.05627,8.10653,8.14733,8.16526,8.237,8.28405,8.32796,8.37352,8.44388,inf,inf,inf,inf,inf,inf,inf,inf,inf,2.47096,2.40188,2.33954,2.25907,2.22937,2.16897,2.13677,2.07146,2.04546,2.0074,1.95697,1.94555,1.91844,1.94346,1.98574,2.03459,2.06177,2.10694,2.07794,2.05219,2.01939,1.9943,1.97369,1.94735,1.9083,1.91072,1.87037,1.86178,1.82986,1.81268,1.81144,1.79919,1.77179,1.75494,1.74972,1.74937,1.72057,1.72284,1.70677,1.67771,1.67332,1.67563,1.65834,1.65736,1.65787,1.3428,1.35906,1.33492,1.3495,1.3405,1.36013,1.33095,1.31989,1.3213,1.3272,1.31914,1.33056,1.3236,1.32343,1.31205,1.3187,1.30974,1.33468,1.31576,1.32163,1.32924,1.34602,1.3384,1.32576,1.33679
1.28805,1.28466,1.2894,1.31647,1.28486,1.28074,1.29897,1.3077,1.28621,1.30875,1.30999,1.30245,1.31349,1.31399,1.32351,1.33561,1.6252,1.61827,1.64397,1.65046,1.64516,1.67332,1.66115,1.66188,1.68016,1.70177,1.73078,1.75311,1.73844,1.75763,1.7827,1.78701,1.82281,1.81826,1.84468,1.84613,1.88751,1.90948,1.93205,1.94578,1.98479,2.00314,2.03507,2.0729,2.02857,2.00148,1.94248,1.94347,1.87091,1.8644,1.91867,1.92865,1.98923,2.05502,2.00062,1.98953,1.98492,1.93317,1.91197,1.88016,1.86383,1.8502,1.82089,1.82354,1.79007,1.75685,1.77637,1.75784,1.7279,1.73072,1.71999,1.67086,1.68134,1.67712,1.65488,1.65892,1.65,1.62136,1.64725,1.61619,1.62296,1.61879,1.58693,1.60747,1.60931,1.57319,1.59785,1.57294,1.5593,1.57642,1.56752,1.58184,1.56726,1.5785,1.56633,1.58932,1.56896,1.57948,1.58479,1.60203,1.58603,1.59091,1.60356,1.61238,1.61271,1.61738,1.61374,1.63941,1.64708,1.65098,1.64694,1.6625,1.67444,1.68267,1.67692,1.70361,1.74679,1.73851,1.736,1.77659,inf,inf,inf,inf,inf,inf,inf,inf,inf,inf,inf,inf,inf,inf,inf,inf,inf,inf,inf,inf,inf,inf,inf,inf,inf,inf,inf,inf,inf,inf,inf,inf,inf,inf,inf,inf,inf,inf,inf,inf,inf,inf,inf,inf,inf,inf,inf,inf,inf,inf,inf,inf,inf,inf,inf,inf,inf,inf,inf,inf,inf,inf,inf,inf,inf,inf,inf,inf,inf,inf,inf,inf,inf,inf,inf,inf,inf,inf,inf,inf,inf,inf,inf,inf,inf,inf,inf,inf,inf,inf,inf,inf,inf,inf,inf,inf,inf,inf,inf,inf,inf,inf,inf,inf,inf,inf,inf,inf,inf,inf,inf,inf,inf,inf,inf,inf,inf,inf,inf,inf,inf,inf,inf,inf,inf,inf,inf,inf,inf,inf,inf,inf,inf,inf,inf,inf,inf,inf,inf,inf,inf,inf,inf,inf,inf,inf,inf,8.35842,8.34193,8.33783,8.32294,8.32545,8.33038,8.34147,8.32976,8.34289,8.34929,8.35363,8.37782,8.39254,8.40769,8.43102,8.45927,8.48744,8.51089,8.55242,8.58618,8.61922,8.65548,8.69755,8.74896,8.80999,8.87942,inf,inf,inf,inf,inf,2.94834,2.83251,2.73407,2.63704,2.57586,2.4899,2.4244,2.36666,2.31304,2.30073,2.32009,2.36559,2.41226,2.41588,2.43176,2.37886,2.32467,2.29539,2.26581,2.23055,2.16765,2.15916,2.11403,2.07372,2.04743,2.02691,1.99963,1.97196,1.94727,1.93032,1.89366,1.52921,1.51887,1.51126,1.48704,1.48445,1.46532,1.45218,1.42359,1.43084,1.4197,1.38577,1.3816,1.39193,1.38065,1.36121,1.34684,1.36428,1.35178,1.3394,1.34104,1.32592,1.31785,1.31309,1.31847,1.2966,1.30764,1.30676,1.29494,1.30544,1.29434,1.30384
1.30486,1.31169,1.30067,1.30321,1.30196,1.3142,1.29245,1.29644,1.29948,1.29845,1.29506,1.2973,1.31381,1.30298,1.30659,1.32542,1.6269,1.63324,1.63278,1.64242,1.66343,1.67567,1.66094,1.66715,1.69376,1.72281,1.71263,1.74869,1.73059,1.7601,1.76654,1.77654,1.78895,1.79798,1.84324,1.86587,1.88567,1.91486,1.92906,1.95277,1.98725,2.0018,2.03656,2.05366,2.02939,2.0057,1.9637,1.91236,1.88317,1.88116,1.91017,1.94797,1.99124,2.03807,2.01292,2.00188,1.95033,1.94157,1.92136,1.89571,1.86012,1.86599,1.82723,1.81127,1.78208,1.76618,1.76102,1.73688,1.73806,1.7164,1.69674,1.69261,1.67219,1.66162,1.66167,1.66355,1.65169,1.63366,1.61814,1.60951,1.61344,1.59721,1.59254,1.60033,1.60028,1.60701,1.56339,1.56481,1.58556,1.57337,1.57583,1.58009,1.56987,1.56891,1.5617,1.59626,1.5785,1.57533,1.58251,1.59037,1.5864,1.59152,1.59105,1.60217,1.60623,1.61509,1.61829,1.64185,1.62144,1.64933,1.65086,1.67376,1.64687,1.67538,1.69464,1.71178,1.72251,1.72429,1.74223,1.74843,inf,inf,inf,inf,inf,inf,inf,inf,inf,inf,inf,inf,inf,inf,inf,inf,inf,inf,inf,inf,inf,inf,inf,inf,inf,inf,inf,inf,inf,inf,inf,inf,inf,inf,inf,inf,inf,inf,inf,inf,inf,inf,inf,inf,inf,inf,inf,inf,inf,inf,inf,inf,inf,inf,inf,inf,inf,inf,inf,inf,inf,inf,inf,inf,inf,inf,inf,inf,inf,inf,inf,inf,inf,inf,inf,inf,inf,inf,inf,inf,inf,inf,inf,inf,inf,inf,inf,inf,inf,inf,inf,inf,inf,inf,inf,inf,inf,inf,inf,inf,inf,inf,inf,inf,inf,inf,inf,inf,inf,inf,inf,inf,inf,inf,inf,inf,inf,inf,inf,inf,inf,inf,inf,inf,inf,inf,inf,inf,inf,inf,inf,inf,inf,inf,inf,inf,inf,inf,inf,inf,inf,inf,inf,inf,inf,inf,inf,8.34412,8.3557,8.3365,8.33358,8.32546,8.3208,8.33084,8.30669,8.33396,8.34164,8.3503,8.37281,8.38787,8.40373,8.43629,8.45739,8.49629,8.51116,8.55816,8.59092,8.62263,8.66017,8.71206,8.74863,8.81576,8.86263,inf,inf,inf,inf,inf,2.93859,2.84371,2.75596,2.64902,2.57562,2.50986,2.41774,2.35821,2.296,2.32508,2.30958,2.36519,2.40719,2.43467,2.44883,2.3863,2.33182,2.32855,2.26701,2.21478,2.17816,2.14535,2.11302,2.0781,2.05822,2.02266,2.00547,1.96337,1.92121,1.91893,1.90992,1.54289,1.49148,1.5046,1.49673,1.4755,1.47772,1.45311,1.43551,1.41829,1.40843,1.41101,1.3908,1.38149,1.37377,1.36941,1.3697,1.33986,1.34487,1.32615,1.33918,1.33155,1.33206,1.32125,1.31352,1.30649,1.31698,1.30358,1.30464,1.30518,1.29498,1.30115
1.57743,1.57242,1.58415,1.56699,1.57132,1.56569,1.59143,1.56625,1.57991,1.60293,1.56862,1.60841,1.57483,1.60069,1.61881,1.60049,1.60633,1.62921,1.62607,1.61402,1.642,1.65745,1.95951,1.97473,1.98244,2.01506,2.01644,2.03366,2.04739,2.07132,2.08006,2.08399,2.11592,2.16182,2.16003,2.19398,2.21939,2.24136,2.2447,2.29499,2.31483,2.34413,2.37739,2.42994,2.42378,2.38523,2.31643,2.27731,2.2533,2.26904,2.30997,2.35733,2.38741,2.35048,2.35041,2.29142,2.26607,2.24298,2.22053,2.16967,2.14124,2.13925,2.11902,2.08705,2.08574,2.06149,2.04236,2.0082,1.99614,1.99532,1.9738,1.9432,1.93344,1.93029,1.92253,1.91328,1.90479,1.88506,1.86873,1.86713,1.87052,1.87443,1.83199,1.83402,1.83457,1.83615,1.84159,1.80978,1.81994,1.82497,1.82717,1.81886,1.8179,1.79203,1.82082,1.84206,1.80957,1.80776,1.83452,1.82986,1.82561,1.82525,1.84025,1.8409,1.84615,1.8561,1.85067,1.88182,1.86564,inf,inf,inf,inf,inf,inf,inf,inf,inf,inf,inf,inf,inf,inf,inf,inf,inf,inf,inf,inf,inf,inf,inf,inf,inf,inf,inf,inf,inf,inf,inf,inf,inf,inf,inf,inf,inf,inf,inf,inf,inf,inf,inf,inf,inf,inf,inf,inf,inf,inf,inf,inf,inf,inf,inf,inf,inf,inf,inf,inf,inf,inf,inf,inf,inf,inf,inf,inf,inf,inf,inf,inf,inf,inf,inf,inf,inf,inf,inf,inf,inf,inf,inf,inf,inf,inf,inf,inf,inf,inf,inf,inf,inf,inf,inf,inf,inf,inf,inf,inf,inf,inf,inf,inf,inf,inf,inf,inf,inf,inf,inf,inf,inf,inf,inf,inf,inf,inf,inf,inf,inf,inf,inf,inf,inf,inf,inf,inf,inf,inf,inf,inf,inf,inf,inf,inf,inf,inf,inf,inf,inf,inf,inf,inf,inf,inf,inf,inf,inf,inf,inf,inf,inf,inf,inf,inf,inf,inf,inf,inf,8.08555,8.08232,8.07759,8.08479,8.08796,8.10515,8.09964,8.108,8.11979,8.11744,8.14079,8.16363,8.18116,8.19045,8.22727,8.26768,8.30665,8.32339,8.35637,8.39368,8.44266,8.49709,8.52546,8.57908,8.65477,8.70842,8.77334,inf,inf,inf,inf,inf,inf,inf,inf,inf,inf,2.81597,2.76698,2.69332,2.63577,2.58037,2.51781,2.45989,2.41395,2.35312,2.31341,2.28128,2.31718,2.35731,2.40713,2.45596,2.45318,2.41739,2.38525,2.35216,2.33737,2.30296,2.27413,2.23303,2.21791,2.18818,2.16706,2.13533,2.11517,2.11072,2.07362,2.06506,2.05366,2.05018,2.02229,2.019,1.99249,1.66129,1.64606,1.66375,1.64732,1.63702,1.64763,1.62675,1.6158,1.61055,1.62617,1.59035,1.59704,1.58851,1.58767,1.57672,1.59223,1.55146,1.55673
2.67462,2.65776,2.6401,2.37774,2.3612,2.34019,2.35899,2.35793,2.35268,2.35281,2.35203,2.35458,2.35708,2.36611,2.34771,2.36851,2.3513,2.39583,2.38066,2.38085,2.4026,2.42113,2.41348,2.44674,2.44397,2.44222,2.47072,2.4694,2.49226,2.49971,2.82158,2.83905,2.86256,2.8875,2.90346,2.94173,2.97292,3.00324,3.02255,3.03999,3.08093,3.12113,3.15023,3.18954,3.21989,3.24074,3.18907,3.12636,3.05214,3.08243,3.14549,3.17371,3.13816,3.08491,3.03746,2.97518,2.92727,2.87373,2.83373,2.81105,2.76321,2.72227,2.67997,2.65848,2.62311,2.58666,2.56174,2.53492,2.49565,2.49356,2.45991,2.42355,2.40803,2.37987,2.37043,2.37342,2.33851,2.31961,2.30944,2.29121,2.29119,2.26343,2.27919,2.23016,2.23161,2.22538,2.21548,2.17641,2.1861,2.18283,2.17795,2.1674,2.25632,inf,inf,inf,inf,inf,inf,inf,inf,inf,inf,inf,inf,inf,inf,inf,inf,inf,inf,inf,inf,inf,inf,inf,inf,inf,inf,inf,inf,inf,inf,inf,inf,inf,inf,inf,inf,inf,inf,inf,inf,inf,inf,inf,inf,inf,inf,inf,inf,inf,inf,inf,inf,inf,inf,inf,inf,inf,inf,inf,inf,inf,inf,inf,inf,inf,inf,inf,inf,inf,inf,inf,inf,inf,inf,inf,inf,inf,inf,inf,inf,inf,inf,inf,inf,inf,inf,inf,inf,inf,inf,inf,inf,inf,inf,inf,inf,inf,inf,inf,inf,inf,inf,inf,inf,inf,inf,inf,inf,inf,inf,inf,inf,inf,inf,inf,inf,inf,inf,inf,inf,inf,inf,inf,inf,inf,inf,inf,inf,inf,inf,inf,inf,inf,inf,inf,inf,inf,inf,inf,inf,inf,inf,inf,inf,inf,inf,inf,inf,inf,inf,inf,inf,inf,inf,inf,inf,inf,inf,inf,inf,inf,inf,inf,inf,inf,inf,inf,inf,inf,inf,inf,inf,inf,inf,inf,inf,inf,inf,inf,inf,inf,inf,inf,inf,inf,inf,inf,7.73718,7.75522,7.76786,7.77276,7.78172,7.79758,7.84173,7.84165,7.86115,7.8884,7.90795,7.9497,7.95989,8.01902,8.06494,8.09711,8.12596,8.19714,8.2444,8.29374,8.36913,8.41571,8.49606,8.54411,8.60775,8.69122,8.78624,inf,inf,inf,inf,inf,inf,inf,inf,inf,inf,inf,inf,inf,inf,inf,inf,inf,inf,inf,inf,3.10098,3.06862,3.0311,2.9723,2.9382,2.89534,2.86922,2.84073,2.8077,2.76455,2.74604,2.72324,2.6841,2.78395,2.90175,2.91072,2.91928,2.87416,2.84715,2.82829,2.79163,2.78774,2.78794,2.76862,2.74969,2.72272,2.71123,2.7236,2.69475,2.67814,2.67366,2.68376,2.6677
2.78983,2.76227,2.73987,2.73739,2.72947,2.70998,2.70582,2.6911,2.69717,2.69229,2.67732,2.6748,2.68703,2.67619,2.68019,2.67657,2.37969,2.3763,2.39258,2.3722,2.39011,2.39743,2.40418,2.39662,2.40581,2.42207,2.41697,2.43871,2.43385,2.45022,2.47799,2.47106,2.49036,2.48073,2.50114,2.53341,2.55383,2.57316,2.58341,2.58704,2.632,2.6094,2.97714,3.0025,3.03489,3.06738,3.07874,3.10651,3.13618,3.18298,3.21146,3.27685,3.32108,3.36244,3.38788,3.44199,3.36541,3.29167,3.22308,3.28452,3.33464,3.37283,3.33149,3.28464,3.2387,3.17093,3.11047,3.09263,3.03949,3.01734,2.96102,2.93593,2.89752,2.86688,2.82331,2.79184,2.75498,2.74567,2.70778,2.68378,2.68194,2.643,2.62394,2.59623,2.57984,2.56653,2.54749,2.54243,2.51789,2.50711,2.50181,2.4848,2.46612,2.4762,2.46038,2.45491,2.43278,2.43392,2.4207,2.48157,inf,inf,inf,inf,inf,inf,inf,inf,inf,inf,inf,inf,inf,inf,inf,inf,inf,inf,inf,inf,inf,inf,inf,inf,inf,inf,inf,inf,inf,inf,inf,inf,inf,inf,inf,inf,inf,inf,inf,inf,inf,inf,inf,inf,inf,inf,inf,inf,inf,inf,inf,inf,inf,inf,inf,inf,inf,inf,inf,inf,inf,inf,inf,inf,inf,inf,inf,inf,inf,inf,inf,inf,inf,inf,inf,inf,inf,inf,inf,inf,inf,inf,inf,inf,inf,inf,inf,inf,inf,inf,inf,inf,inf,inf,inf,inf,inf,inf,inf,inf,inf,inf,inf,inf,inf,inf,inf,inf,inf,inf,inf,inf,inf,inf,inf,inf,inf,inf,inf,inf,inf,inf,inf,inf,inf,inf,inf,inf,inf,inf,inf,inf,inf,inf,inf,inf,inf,inf,inf,inf,inf,inf,inf,inf,inf,inf,inf,inf,inf,inf,inf,inf,inf,inf,inf,inf,inf,inf,inf,inf,inf,inf,inf,inf,inf,inf,inf,inf,inf,inf,inf,inf,inf,inf,inf,inf,inf,inf,inf,inf,inf,inf,inf,inf,inf,inf,inf,inf,7.52024,7.50217,7.54062,7.52931,7.55164,7.57804,7.58501,7.62128,7.63355,7.66368,7.6961,7.73838,7.74964,7.79931,7.83924,7.88271,7.94172,7.97271,8.03018,8.08757,8.12654,8.21021,8.27873,8.31791,8.42704,8.49494,8.57214,inf,inf,inf,inf,inf,inf,inf,inf,inf,inf,inf,inf,inf,inf,inf,inf,inf,inf,inf,inf,inf,inf,inf,2.99975,2.96494,2.91279,2.86964,2.85672,2.82087,2.78218,2.75444,2.72661,2.70581,2.67025,2.64435,2.64387,2.60252,2.71467,2.82718,2.84575,2.83345,2.82619,2.79126,2.77158,2.78506
2.76745,2.78347,2.784,2.80935,2.83528,2.83553,3.15608,3.18188,3.21394,3.24634,3.28393,3.30431,3.32069,3.35998,3.38955,3.42328,3.45463,3.5065,3.53004,3.57316,3.55243,3.45947,3.36941,3.43021,3.46305,3.53679,3.46198,3.41374,3.31797,3.25553,3.22332,3.15244,3.12731,3.05899,3.00066,2.97323,2.93129,2.88825,2.84477,2.81591,2.7913,2.74934,2.71704,2.70847,2.67863,2.63193,2.61748,2.57553,2.57151,2.54123,2.51908,2.50624,2.48692,2.45399,2.43078,2.43717,2.43133,2.40053,2.39017,2.37541,2.38467,inf,inf,inf,inf,inf,inf,inf,inf,inf,inf,inf,inf,inf,inf,inf,inf,inf,inf,inf,inf,inf,inf,inf,inf,inf,inf,inf,inf,inf,inf,inf,inf,inf,inf,inf,inf,inf,inf,inf,inf,inf,inf,inf,inf,inf,inf,inf,inf,inf,inf,inf,inf,inf,inf,inf,inf,inf,inf,inf,inf,inf,inf,inf,inf,inf,inf,inf,inf,inf,inf,inf,inf,inf,inf,inf,inf,inf,inf,inf,inf,inf,inf,inf,inf,inf,inf,inf,inf,inf,inf,inf,inf,inf,inf,inf,inf,inf,inf,inf,inf,inf,inf,inf,inf,inf,inf,inf,inf,inf,inf,inf,inf,inf,inf,inf,inf,inf,inf,inf,inf,inf,inf,inf,inf,inf,inf,inf,inf,inf,inf,inf,inf,inf,inf,inf,inf,inf,inf,inf,inf,inf,inf,inf,inf,inf,inf,inf,inf,inf,inf,inf,inf,inf,inf,inf,inf,inf,inf,inf,inf,inf,inf,inf,inf,inf,inf,inf,inf,inf,inf,inf,inf,inf,inf,inf,inf,inf,inf,inf,inf,inf,inf,inf,inf,inf,inf,inf,inf,inf,inf,inf,inf,inf,inf,inf,inf,inf,7.63502,7.63185,7.63881,7.66138,7.68379,7.69002,7.71832,7.76312,7.80438,7.82575,7.85748,7.89809,7.91204,7.97462,8.00166,8.04507,8.11823,8.16604,8.2147,8.27803,8.34288,8.41168,8.47673,8.56937,8.64531,8.71958,8.81195,inf,inf,inf,inf,inf,inf,inf,inf,inf,inf,inf,inf,inf,inf,inf,inf,inf,inf,inf,inf,inf,inf,inf,3.282,3.20454,3.18672,3.16455,3.14259,3.06473,3.0544,3.01786,3.02165,2.98565,2.95043,2.92539,2.90719,3.03139,3.14453,3.14418,3.1335,3.09842,3.08523,3.08387,3.05581,3.02563,3.02572,3.00396,3.01674,3.00678,2.96069,2.96573,2.96892,2.95725,2.96353,2.96127,2.96377,2.94325,2.67292,2.66242,2.66809,2.67381,2.67572,2.67775,2.65159,2.69046,2.69012,2.68533,2.68638,2.70635,2.72264,2.71062,2.74498,2.74047,2.75262,2.7571
1.74195,1.74151,1.71709,1.73863,1.72643,1.75126,1.73942,1.73068,1.75741,1.7534,1.75127,1.76987,1.76159,1.77509,1.7981,1.79051,1.82542,1.80353,1.8394,1.82159,1.83779,1.85905,1.86988,2.18849,2.1872,2.23862,2.24325,2.25308,2.27569,2.29324,2.32825,2.33748,2.36797,2.40073,2.43261,2.46329,2.49222,2.50698,2.54805,2.59293,2.63663,2.67925,2.60257,2.56484,2.51901,2.47661,2.49797,2.55096,2.58139,2.61963,2.58683,2.54885,2.52065,2.47626,2.44128,2.41789,2.37934,2.34267,2.32224,2.30305,2.2859,2.2722,2.24288,2.21467,2.21835,2.18139,2.16259,2.1535,2.13765,2.12824,2.09997,2.08551,2.10431,2.0604,2.06127,2.0356,2.03624,2.04299,2.01851,2.01067,2.01194,2.01123,1.97528,1.98241,1.98441,1.97466,1.97461,1.97885,1.95988,1.98761,1.95911,1.97729,1.99426,1.99325,1.96845,1.98496,1.97885,2.00156,1.99368,2.00577,2.00375,inf,inf,inf,inf,inf,inf,inf,inf,inf,inf,inf,inf,inf,inf,inf,inf,inf,inf,inf,inf,inf,inf,inf,inf,inf,inf,inf,inf,inf,inf,inf,inf,inf,inf,inf,inf,inf,inf,inf,inf,inf,inf,inf,inf,inf,inf,inf,inf,inf,inf,inf,inf,inf,inf,inf,inf,inf,inf,inf,inf,inf,inf,inf,inf,inf,inf,inf,inf,inf,inf,inf,inf,inf,inf,inf,inf,inf,inf,inf,inf,inf,inf,inf,inf,inf,inf,inf,inf,inf,inf,inf,inf,inf,inf,inf,inf,inf,inf,inf,inf,inf,inf,inf,inf,inf,inf,inf,inf,inf,inf,inf,inf,inf,inf,inf,inf,inf,inf,inf,inf,inf,inf,inf,inf,inf,inf,inf,inf,inf,inf,inf,inf,inf,inf,inf,inf,inf,inf,inf,inf,inf,inf,inf,inf,inf,inf,inf,inf,inf,inf,inf,inf,inf,inf,inf,inf,inf,inf,inf,inf,inf,inf,inf,inf,inf,inf,7.93234,7.90863,7.91092,7.93872,7.93156,7.94772,7.95783,7.95471,7.95961,7.989,7.99025,8.01051,8.04826,8.04385,8.08046,8.10017,8.13192,8.18636,8.23888,8.24746,8.3007,8.34474,8.40479,8.44615,8.52472,8.59867,8.6462,8.70481,inf,inf,inf,inf,inf,inf,inf,inf,inf,inf,inf,inf,2.8452,2.77953,2.72712,2.67465,2.60354,2.56706,2.52621,2.46805,2.43006,2.38766,2.33976,2.31024,2.27855,2.33583,2.37888,2.44921,2.51605,2.48285,2.43482,2.39263,2.36542,2.35998,2.35186,2.30979,2.28548,2.26359,2.24738,2.22352,2.22311,2.1981,2.18659,2.16397,2.15384,2.11766,2.12871,2.11719,2.09701,2.10082,2.06944,1.77384,1.76304,1.76744,1.76366,1.74923,1.76459,1.74733,1.73342,1.76894,1.73034,1.72699,1.73857,1.73593,1.73538
1.72099,1.72841,1.72733,1.74217,1.73372,1.73154,1.73493,1.73992,1.75111,1.75041,1.75847,1.76556,1.78186,1.7758,1.77921,1.78963,1.79758,1.7999,1.83814,1.82724,1.84081,1.85405,1.8864,2.18095,2.20189,2.22176,2.247,2.26433,2.27887,2.31109,2.306,2.33541,2.35451,2.40722,2.42896,2.46004,2.49465,2.52228,2.5622,2.58505,2.6195,2.66285,2.62785,2.5623,2.52789,2.47734,2.49081,2.52676,2.57514,2.6253,2.57501,2.54004,2.51975,2.48602,2.45051,2.42559,2.38597,2.37093,2.33147,2.31768,2.27995,2.26675,2.24489,2.21895,2.19071,2.1774,2.14793,2.13095,2.13226,2.10718,2.10596,2.10401,2.09439,2.09023,2.05495,2.04721,2.05592,2.04291,2.00882,2.02392,2.00616,1.97863,1.98749,1.99303,1.99287,1.99315,1.97343,1.99155,1.97555,1.96195,1.96032,1.95896,1.97884,1.98144,1.96886,1.97592,2.01967,1.97827,1.99641,2.00325,1.99853,inf,inf,inf,inf,inf,inf,inf,inf,inf,inf,inf,inf,inf,inf,inf,inf,inf,inf,inf,inf,inf,inf,inf,inf,inf,inf,inf,inf,inf,inf,inf,inf,inf,inf,inf,inf,inf,inf,inf,inf,inf,inf,inf,inf,inf,inf,inf,inf,inf,inf,inf,inf,inf,inf,inf,inf,inf,inf,inf,inf,inf,inf,inf,inf,inf,inf,inf,inf,inf,inf,inf,inf,inf,inf,inf,inf,inf,inf,inf,inf,inf,inf,inf,inf,inf,inf,inf,inf,inf,inf,inf,inf,inf,inf,inf,inf,inf,inf,inf,inf,inf,inf,inf,inf,inf,inf,inf,inf,inf,inf,inf,inf,inf,inf,inf,inf,inf,inf,inf,inf,inf,inf,inf,inf,inf,inf,inf,inf,inf,inf,inf,inf,inf,inf,inf,inf,inf,inf,inf,inf,inf,inf,inf,inf,inf,inf,inf,inf,inf,inf,inf,inf,inf,inf,inf,inf,inf,inf,inf,inf,inf,inf,inf,inf,inf,inf,7.92523,7.93418,7.93082,7.92901,7.91337,7.93874,7.94503,7.95042,7.95008,7.99335,7.9965,8.00296,8.02943,8.06748,8.09293,8.10282,8.15104,8.17471,8.22895,8.27251,8.3093,8.36918,8.41396,8.46588,8.51709,8.59468,8.63939,8.7277,inf,inf,inf,inf,inf,inf,inf,inf,inf,inf,inf,inf,2.84529,2.76911,2.72848,2.6552,2.63735,2.57458,2.51662,2.46146,2.433,2.37299,2.3527,2.31107,2.27714,2.32391,2.39164,2.44446,2.49943,2.46589,2.44275,2.39959,2.38722,2.35558,2.32315,2.31744,2.2836,2.26463,2.25124,2.24014,2.20889,2.21629,2.17938,2.16436,2.16028,2.13404,2.12349,2.11087,2.10321,2.08184,2.08678,1.77995,1.78279,1.78138,1.77093,1.7598,1.74829,1.74032,1.75051,1.73149,1.72854,1.74247,1.75198,1.73715,1.74011
1.73874,1.73368,1.75017,1.74098,1.72222,1.73125,1.74308,1.76006,1.74391,1.7653,1.76219,1.75278,1.7853,1.77816,1.79705,1.8019,1.7907,1.80949,1.81811,1.82202,1.84096,1.85756,1.85713,2.17972,2.20056,2.23584,2.24573,2.25516,2.28453,2.2992,2.30993,2.3358,2.36976,2.37805,2.42352,2.45888,2.45349,2.53809,2.54923,2.59968,2.62721,2.66131,2.62936,2.5808,2.52609,2.47461,2.48988,2.53383,2.57866,2.63259,2.57745,2.54037,2.52425,2.4767,2.44288,2.4097,2.3812,2.35446,2.34118,2.30814,2.26876,2.2685,2.23981,2.2207,2.20187,2.18482,2.17018,2.14778,2.1352,2.12054,2.11091,2.09341,2.07034,2.05557,2.05511,2.03933,2.03013,2.03627,2.00625,2.00626,1.9963,1.98951,1.99861,1.98528,1.99692,1.97621,1.98119,1.98596,1.9754,1.96968,1.97022,1.96443,1.9721,1.98944,1.98209,1.97323,1.98049,1.99779,2.00349,2.01214,1.99685,inf,inf,inf,inf,inf,inf,inf,inf,inf,inf,inf,inf,inf,inf,inf,inf,inf,inf,inf,inf,inf,inf,inf,inf,inf,inf,inf,inf,inf,inf,inf,inf,inf,inf,inf,inf,inf,inf,inf,inf,inf,inf,inf,inf,inf,inf,inf,inf,inf,inf,inf,inf,inf,inf,inf,inf,inf,inf,inf,inf,inf,inf,inf,inf,inf,inf,inf,inf,inf,inf,inf,inf,inf,inf,inf,inf,inf,inf,inf,inf,inf,inf,inf,inf,inf,inf,inf,inf,inf,inf,inf,inf,inf,inf,inf,inf,inf,inf,inf,inf,inf,inf,inf,inf,inf,inf,inf,inf,inf,inf,inf,inf,inf,inf,inf,inf,inf,inf,inf,inf,inf,inf,inf,inf,inf,inf,inf,inf,inf,inf,inf,inf,inf,inf,inf,inf,inf,inf,inf,inf,inf,inf,inf,inf,inf,inf,inf,inf,inf,inf,inf,inf,inf,inf,inf,inf,inf,inf,inf,inf,inf,inf,inf,inf,inf,inf,7.92613,7.93334,7.93192,7.91592,7.93226,7.93355,7.93809,7.94372,7.97027,7.97219,7.99244,8.0205,8.03214,8.05923,8.08938,8.11561,8.1447,8.19351,8.22553,8.26637,8.32701,8.3607,8.41241,8.47745,8.52047,8.60136,8.65031,8.69219,inf,inf,inf,inf,inf,inf,inf,inf,inf,inf,inf,inf,2.84564,2.76911,2.70847,2.68269,2.62083,2.55343,2.52832,2.49005,2.43093,2.39355,2.36741,2.33009,2.29361,2.32764,2.37132,2.45938,2.49802,2.49911,2.43905,2.40956,2.38633,2.36203,2.3142,2.33158,2.2833,2.26528,2.24527,2.23562,2.22136,2.19949,2.17319,2.14587,2.13846,2.13447,2.12669,2.12393,2.09821,2.08384,2.07494,1.77815,1.773,1.76831,1.74463,1.7596,1.76655,1.76236,1.7765,1.73775,1.75734,1.72932,1.73584,1.7298,1.72532
1.73812,1.72669,1.73103,1.74978,1.73183,1.72073,1.7561,1.74635,1.75551,1.76596,1.75124,1.76679,1.76912,1.76718,1.80297,1.79531,1.80018,1.81466,1.83243,1.84254,1.85495,1.87034,1.87637,2.18132,2.20624,2.20819,2.24962,2.25276,2.25934,2.28647,2.32894,2.36422,2.36638,2.39043,2.41355,2.44143,2.47869,2.52642,2.55431,2.58094,2.61532,2.66161,2.62453,2.54957,2.51963,2.46325,2.48627,2.54722,2.56691,2.61908,2.58301,2.55795,2.4952,2.48202,2.42629,2.41013,2.37235,2.37105,2.32973,2.29188,2.27369,2.27185,2.2242,2.22244,2.19014,2.19971,2.18038,2.16459,2.13294,2.12655,2.11716,2.09658,2.09834,2.06514,2.05961,2.05338,2.02585,2.00781,2.01231,2.01373,1.99597,1.99853,1.98748,1.98424,1.99717,1.99177,1.99866,1.97596,1.99416,1.96899,1.97946,1.98191,1.97134,1.9666,1.98829,1.9702,1.98881,1.98567,2.00095,2.0101,2.0001,inf,inf,inf,inf,inf,inf,inf,inf,inf,inf,inf,inf,inf,inf,inf,inf,inf,inf,inf,inf,inf,inf,inf,inf,inf,inf,inf,inf,inf,inf,inf,inf,inf,inf,inf,inf,inf,inf,inf,inf,inf,inf,inf,inf,inf,inf,inf,inf,inf,inf,inf,inf,inf,inf,inf,inf,inf,inf,inf,inf,inf,inf,inf,inf,inf,inf,inf,inf,inf,inf,inf,inf,inf,inf,inf,inf,inf,inf,inf,inf,inf,inf,inf,inf,inf,inf,inf,inf,inf,inf,inf,inf,inf,inf,inf,inf,inf,inf,inf,inf,inf,inf,inf,inf,inf,inf,inf,inf,inf,inf,inf,inf,inf,inf,inf,inf,inf,inf,inf,inf,inf,inf,inf,inf,inf,inf,inf,inf,inf,inf,inf,inf,inf,inf,inf,inf,inf,inf,inf,inf,inf,inf,inf,inf,inf,inf,inf,inf,inf,inf,inf,inf,inf,inf,inf,inf,inf,inf,inf,inf,inf,inf,inf,inf,inf,inf,7.91686,7.92887,7.9236,7.91986,7.92209,7.91778,7.94893,7.95291,7.94719,7.9727,7.98633,8.00368,8.04454,8.04927,8.08609,8.11319,8.13468,8.18546,8.22883,8.27791,8.32519,8.35096,8.41544,8.46286,8.53045,8.58224,8.63867,8.70563,inf,inf,inf,inf,inf,inf,inf,inf,inf,inf,inf,inf,2.836,2.78632,2.73358,2.68632,2.60439,2.54804,2.50536,2.48421,2.42758,2.38144,2.34421,2.32059,2.28654,2.33215,2.39363,2.43158,2.50434,2.47562,2.45909,2.42488,2.38172,2.35518,2.34463,2.30431,2.28273,2.25994,2.25357,2.22976,2.20918,2.19522,2.17963,2.16351,2.16408,2.13203,2.11453,2.11166,2.09839,2.08296,2.07294,1.77091,1.78495,1.77349,1.75839,1.74995,1.7593,1.74314,1.75333,1.74635,1.72326,1.72461,1.74033,1.73724,1.72792
1.73924,1.76652,1.74264,1.74435,1.74342,1.72875,1.75101,1.77398,1.75775,1.75384,1.75974,1.77127,1.76733,1.78335,1.79477,1.79141,1.80243,1.82367,1.80931,1.83114,1.83682,1.86123,1.88441,2.17148,2.20202,2.21636,2.24135,2.24525,2.29408,2.30967,2.30707,2.35127,2.35596,2.39943,2.4215,2.47197,2.49021,2.5322,2.55024,2.58972,2.63573,2.65847,2.62132,2.57031,2.53266,2.49699,2.49631,2.5383,2.57259,2.61533,2.58521,2.53589,2.49702,2.48877,2.44527,2.4287,2.3991,2.37293,2.33619,2.29679,2.28412,2.26003,2.23955,2.22173,2.21064,2.17165,2.15093,2.13814,2.12146,2.11354,2.10117,2.09802,2.08852,2.07928,2.04217,2.04038,2.02889,2.02892,2.02069,1.98404,2.02269,2.00596,2.00075,1.99592,1.99018,1.99225,1.9819,1.99646,1.98418,1.98266,1.97295,1.98003,1.97363,1.99221,1.97774,1.99946,1.96174,1.97616,1.99158,2.01721,1.99039,inf,inf,inf,inf,inf,inf,inf,inf,inf,inf,inf,inf,inf,inf,inf,inf,inf,inf,inf,inf,inf,inf,inf,inf,inf,inf,inf,inf,inf,inf,inf,inf,inf,inf,inf,inf,inf,inf,inf,inf,inf,inf,inf,inf,inf,inf,inf,inf,inf,inf,inf,inf,inf,inf,inf,inf,inf,inf,inf,inf,inf,inf,inf,inf,inf,inf,inf,inf,inf,inf,inf,inf,inf,inf,inf,inf,inf,inf,inf,inf,inf,inf,inf,inf,inf,inf,inf,inf,inf,inf,inf,inf,inf,inf,inf,inf,inf,inf,inf,inf,inf,inf,inf,inf,inf,inf,inf,inf,inf,inf,inf,inf,inf,inf,inf,inf,inf,inf,inf,inf,inf,inf,inf,inf,inf,inf,inf,inf,inf,inf,inf,inf,inf,inf,inf,inf,inf,inf,inf,inf,inf,inf,inf,inf,inf,inf,inf,inf,inf,inf,inf,inf,inf,inf,inf,inf,inf,inf,inf,inf,inf,inf,inf,inf,inf,inf,7.9258,7.93797,7.92363,7.93093,7.92724,7.9368,7.92433,7.94491,7.97363,7.96936,7.98714,8.02366,8.03378,8.04657,8.10392,8.11427,8.13081,8.19394,8.21704,8.25645,8.3173,8.3535,8.39365,8.46988,8.51715,8.5856,8.64302,8.71971,inf,inf,inf,inf,inf,inf,inf,inf,inf,inf,inf,inf,2.84089,2.76292,2.72845,2.63131,2.61223,2.55544,2.52379,2.47564,2.42059,2.38875,2.35843,2.32423,2.27902,2.34617,2.37853,2.44955,2.50865,2.46328,2.43021,2.40545,2.39169,2.34145,2.32948,2.30808,2.30118,2.27723,2.24525,2.26399,2.2077,2.19131,2.17769,2.15742,2.15654,2.14149,2.113,2.12158,2.09414,2.08211,2.09532,1.78145,1.77741,1.7777,1.76989,1.75267,1.74682,1.73136,1.75099,1.7549,1.76207,1.74117,1.73743,1.72162,1.72462

