0,1,2,3,4,5,6,7,8,9,10,11,12,13,14,15,16,17,18,19,20,21,22,23,24,25,26,27,28,29,30,31,32,33,34,35,36,37,38,39,40,41,42,43,44,45,46,47,48,49,50,51,52,53,54,55,56,57,58,59,60,61,62,63,64,65,66,67,68,69,70,71,72,73,74,75,76,77,78,79,80,81,82,83,84,85,86,87,88,89,90,91,92,93,94,95,96,97,98,99,100,101,102,103,104,105,106,107,108,109,110,111,112,113,114,115,116,117,118,119,120,121,122,123,124,125,126,127,128,129,130,131,132,133,134,135,136,137,138,139,140,141,142,143,144,145,146,147,148,149,150,151,152,153,154,155,156,157,158,159,160,161,162,163,164,165,166,167,168,169,170,171,172,173,174,175,176,177,178,179,180,181,182,183,184,185,186,187,188,189,190,191,192,193,194,195,196,197,198,199,200,201,202,203,204,205,206,207,208,209,210,211,212,213,214,215,216,217,218,219,220,221,222,223,224,225,226,227,228,229,230,231,232,233,234,235,236,237,238,239,240,241,242,243,244,245,246,247,248,249,250,251,252,253,254,255,256,257,258,259,260,261,262,263,264,265,266,267,268,269,270,271,272,273,274,275,276,277,278,279,280,281,282,283,284,285,286,287,288,289,290,291,292,293,294,295,296,297,298,299,300,301,302,303,304,305,306,307,308,309,310,311,312,313,314,315,316,317,318,319,320,321,322,323,324,325,326,327,328,329,330,331,332,333,334,335,336,337,338,339,340,341,342,343,344,345,346,347,348,349,350,351,352,353,354,355,356,357,358,359
1.47914,1.48841,1.49735,1.49366,1.48745,1.51196,1.5037,1.51005,1.53797,1.51787,1.53734,1.51308,1.54784,1.54459,1.553,1.54689,1.58285,1.56651,1.57134,1.59148,1.61015,1.61116,3.48718,3.51944,3.53808,3.57015,3.61078,3.6615,3.69103,3.71505,3.62576,3.53639,3.43899,3.34363,3.2638,3.17935,3.11034,3.03366,2.96217,2.90944,2.83512,2.77504,2.7342,2.39518,2.33958,2.32942,2.26681,2.23612,2.26555,2.30158,2.34276,2.40239,2.34952,2.34139,2.30446,2.26342,2.25031,2.22797,2.19302,2.18514,2.14342,2.13564,2.1131,2.08747,2.08717,2.041,2.06731,2.01165,2.02206,2.00086,1.99675,1.97976,1.97982,1.95005,1.94865,1.95492,1.92496,1.92783,1.90123,1.90439,1.91806,1.89112,1.88251,1.88301,1.86814,1.88636,1.8859,1.88836,1.88168,1.87163,1.88203,1.88635,1.86792,1.87378,1.8804,1.87507,1.88461,1.88553,1.89159,1.88944,1.92762,1.88956,1.93873,1.9164,1.94934,1.9431,1.94491,1.97753,inf,inf,inf,inf,inf,inf,inf,inf,inf,inf,inf,inf,inf,inf,inf,inf,inf,inf,inf,inf,inf,inf,inf,inf,inf,inf,inf,inf,inf,inf,inf,inf,inf,inf,inf,inf,inf,inf,inf,inf,inf,inf,inf,inf,inf,inf,inf,inf,inf,inf,inf,inf,inf,inf,inf,inf,inf,inf,inf,inf,inf,inf,inf,inf,inf,inf,inf,inf,inf,inf,inf,inf,inf,inf,inf,inf,inf,inf,inf,inf,inf,inf,inf,inf,inf,inf,inf,inf,inf,inf,inf,inf,inf,inf,inf,inf,inf,inf,inf,inf,inf,inf,inf,inf,inf,inf,inf,inf,inf,inf,inf,inf,inf,inf,inf,inf,inf,inf,inf,inf,inf,inf,inf,inf,inf,inf,inf,inf,inf,inf,inf,inf,inf,inf,inf,inf,inf,inf,inf,inf,inf,inf,inf,inf,inf,inf,inf,inf,inf,inf,inf,inf,inf,inf,inf,inf,inf,8.06756,8.02677,8.02719,8.03457,8.03555,8.02432,8.03667,8.03862,8.0225,8.06392,8.06673,8.08311,8.10318,8.13224,8.16085,8.16372,8.20414,8.24458,8.27263,8.29832,8.34811,8.40511,8.45535,8.49305,8.54692,8.60977,8.67618,inf,inf,inf,inf,inf,inf,inf,inf,inf,inf,2.75463,2.68062,2.59232,2.5444,2.49156,2.4404,2.38579,2.34255,2.27937,2.26489,2.20898,2.22982,2.24865,2.28708,2.35138,2.37194,2.37191,2.32477,2.30174,2.25246,2.22735,2.20363,2.16385,2.14907,2.12759,2.10015,2.08396,2.04692,2.02994,2.02356,2.00024,1.98535,1.98541,1.95065,1.91507,1.92277,1.92871,1.88447,1.57577,1.58288,1.56257,1.58019,1.57056,1.55763,1.56752,1.55322,1.52602,1.52173,1.51266,1.51946,1.51592,1.50493,1.49596,1.50844,1.51468,1.50297,1.4893,1.51151
1.5225,1.50739,1.48533,1.50934,1.52184,1.51815,1.53123,1.53509,1.53603,1.53889,1.56106,1.52869,1.56012,1.57423,1.58508,1.58531,1.59099,1.59642,3.48438,3.49376,3.52729,3.57171,3.58804,3.63606,3.65299,3.7059,3.68936,3.57059,3.48172,3.38732,3.30425,3.21468,3.13806,3.0657,3.01569,2.92707,2.86212,2.8096,2.75701,2.40911,2.37352,2.32965,2.27944,2.25998,2.25918,2.29661,2.33345,2.3944,2.37564,2.32391,2.29941,2.2843,2.26916,2.24103,2.21641,2.18515,2.16203,2.15321,2.11664,2.10639,2.08443,2.08056,2.05035,2.0277,2.0105,2.00025,1.99817,1.97649,1.95361,1.97227,1.95878,1.94917,1.9385,1.91569,1.90433,1.92795,1.91054,1.88723,1.89911,1.89759,1.89163,1.88275,1.87841,1.88817,1.864,1.87836,1.86256,1.86189,1.88343,1.88837,1.88339,1.89135,1.88928,1.88412,1.88792,1.90338,1.89446,1.9089,1.90946,1.9179,1.93333,1.93297,1.95449,1.98147,inf,inf,inf,inf,inf,inf,inf,inf,inf,inf,inf,inf,inf,inf,inf,inf,inf,inf,inf,inf,inf,inf,inf,inf,inf,inf,inf,inf,inf,inf,inf,inf,inf,inf,inf,inf,inf,inf,inf,inf,inf,inf,inf,inf,inf,inf,inf,inf,inf,inf,inf,inf,inf,inf,inf,inf,inf,inf,inf,inf,inf,inf,inf,inf,inf,inf,inf,inf,inf,inf,inf,inf,inf,inf,inf,inf,inf,inf,inf,inf,inf,inf,inf,inf,inf,inf,inf,inf,inf,inf,inf,inf,inf,inf,inf,inf,inf,inf,inf,inf,inf,inf,inf,inf,inf,inf,inf,inf,inf,inf,inf,inf,inf,inf,inf,inf,inf,inf,inf,inf,inf,inf,inf,inf,inf,inf,inf,inf,inf,inf,inf,inf,inf,inf,inf,inf,inf,inf,inf,inf,inf,inf,inf,inf,inf,inf,inf,inf,inf,inf,inf,inf,inf,inf,inf,inf,inf,inf,8.02632,8.02836,8.03193,8.0342,8.02471,8.036,8.03975,8.04712,8.06698,8.05789,8.0845,8.09141,8.11338,8.13339,8.16753,8.19646,8.22111,8.2629,8.28437,8.33583,8.36343,8.43789,8.46332,8.53379,8.5751,8.6227,8.69053,inf,inf,inf,inf,inf,inf,inf,inf,inf,2.79337,2.7266,2.62828,2.58863,2.53656,2.47825,2.41007,2.33161,2.30523,2.26028,2.22799,2.18774,2.22872,2.26437,2.30549,2.35902,2.36561,2.32573,2.30979,2.27525,2.23945,2.20565,2.187,2.14139,2.14038,2.11766,2.0788,2.06601,2.03687,2.01037,1.99926,1.96027,1.97661,1.95806,1.94641,1.92024,1.90739,1.88335,1.59454,1.59015,1.57251,1.56451,1.55289,1.54324,1.52826,1.52939,1.53829,1.54582,1.52082,1.52107,1.51138,1.50808,1.51372,1.47879,1.51148,1.51938,1.50062,1.50059,1.50156,1.51375,1.50911,1.5148
1.50398,1.50554,1.51032,1.48935,1.50606,1.51388,1.49365,1.51713,1.53392,1.53539,1.53503,1.53556,1.54495,1.55008,1.54981,1.57709,1.58869,1.57301,1.60625,1.60658,1.60862,3.49167,3.52,3.54172,3.58965,3.61053,3.64437,3.69476,3.71839,3.62965,3.50426,3.41805,3.33781,3.24092,3.16064,3.10286,2.99699,2.95519,2.89235,2.83576,2.77364,2.7314,2.36926,2.3428,2.29316,2.28043,2.22475,2.27353,2.33394,2.36055,2.37492,2.34014,2.33973,2.29408,2.2805,2.2362,2.20803,2.18698,2.15875,2.14309,2.14626,2.10187,2.0687,2.0639,2.05233,2.04794,1.99395,2.00279,2.00426,1.9891,1.97115,1.96717,1.9489,1.95332,1.94761,1.92459,1.92309,1.91857,1.89079,1.89641,1.90023,1.88599,1.88603,1.88732,1.88812,1.86638,1.88012,1.87955,1.8534,1.89767,1.89476,1.89069,1.86676,1.86634,1.89648,1.88264,1.89509,1.89528,1.91207,1.87936,1.91479,1.93576,1.93982,1.9493,1.94189,1.94845,inf,inf,inf,inf,inf,inf,inf,inf,inf,inf,inf,inf,inf,inf,inf,inf,inf,inf,inf,inf,inf,inf,inf,inf,inf,inf,inf,inf,inf,inf,inf,inf,inf,inf,inf,inf,inf,inf,inf,inf,inf,inf,inf,inf,inf,inf,inf,inf,inf,inf,inf,inf,inf,inf,inf,inf,inf,inf,inf,inf,inf,inf,inf,inf,inf,inf,inf,inf,inf,inf,inf,inf,inf,inf,inf,inf,inf,inf,inf,inf,inf,inf,inf,inf,inf,inf,inf,inf,inf,inf,inf,inf,inf,inf,inf,inf,inf,inf,inf,inf,inf,inf,inf,inf,inf,inf,inf,inf,inf,inf,inf,inf,inf,inf,inf,inf,inf,inf,inf,inf,inf,inf,inf,inf,inf,inf,inf,inf,inf,inf,inf,inf,inf,inf,inf,inf,inf,inf,inf,inf,inf,inf,inf,inf,inf,inf,inf,inf,inf,inf,inf,inf,inf,inf,inf,inf,inf,inf,8.04506,8.0374,8.02351,8.01688,8.01773,8.04021,8.01617,8.03835,8.04947,8.04172,8.07808,8.08518,8.09491,8.12211,8.1658,8.19094,8.21362,8.25166,8.30613,8.31686,8.35093,8.40571,8.46844,8.49542,8.55763,8.62526,8.67546,inf,inf,inf,inf,inf,inf,inf,inf,inf,2.82434,2.74652,2.68079,2.61397,2.54236,2.46656,2.41824,2.33724,2.31516,2.26276,2.24383,2.19438,2.19888,2.26505,2.3061,2.34605,2.39027,2.35361,2.33149,2.26416,2.25726,2.22245,2.21383,2.15892,2.13131,2.11695,2.10853,2.07907,2.0433,2.02503,2.01775,2.00156,1.96889,1.95612,1.94013,1.93162,1.92686,1.90801,1.60757,1.5869,1.58403,1.56376,1.56272,1.55683,1.53882,1.52972,1.52744,1.53948,1.51271,1.51948,1.52188,1.52377,1.52169,1.51762,1.49416,1.51169,1.50347,1.50462,1.49422,1.50605
1.51452,1.5103,1.49557,1.51421,1.50306,1.51049,1.49137,1.51212,1.51551,1.4886,1.49943,1.52697,1.52039,1.50983,1.51192,1.53083,1.52069,1.54432,1.5493,1.55957,1.56204,1.57119,1.59534,1.58332,1.5864,1.61171,3.48532,3.49955,3.53829,3.57349,3.59889,3.63809,3.6582,3.71084,3.66639,3.59018,3.4864,3.40515,3.30707,3.21512,3.15023,3.04525,2.98929,2.92576,2.86244,2.81535,2.73432,2.42781,2.37211,2.32315,2.27689,2.24006,2.23631,2.2946,2.32933,2.402,2.37624,2.35889,2.32154,2.30611,2.26394,2.23299,2.21744,2.18492,2.13953,2.15128,2.12348,2.09121,2.09856,2.08245,2.05276,2.03166,2.00625,1.99913,1.98747,1.98247,1.96649,1.94293,1.94925,1.93896,1.96104,1.93015,1.93153,1.9293,1.88889,1.9084,1.8901,1.88114,1.89332,1.8742,1.88029,1.8849,1.88883,1.868,1.87471,1.88535,1.8802,1.86591,1.88021,1.87565,1.89535,1.88151,1.89939,1.91189,1.90694,1.91616,1.92246,1.9354,1.93686,1.95706,1.94806,1.95411,inf,inf,inf,inf,inf,inf,inf,inf,inf,inf,inf,inf,inf,inf,inf,inf,inf,inf,inf,inf,inf,inf,inf,inf,inf,inf,inf,inf,inf,inf,inf,inf,inf,inf,inf,inf,inf,inf,inf,inf,inf,inf,inf,inf,inf,inf,inf,inf,inf,inf,inf,inf,inf,inf,inf,inf,inf,inf,inf,inf,inf,inf,inf,inf,inf,inf,inf,inf,inf,inf,inf,inf,inf,inf,inf,inf,inf,inf,inf,inf,inf,inf,inf,inf,inf,inf,inf,inf,inf,inf,inf,inf,inf,inf,inf,inf,inf,inf,inf,inf,inf,inf,inf,inf,inf,inf,inf,inf,inf,inf,inf,inf,inf,inf,inf,inf,inf,inf,inf,inf,inf,inf,inf,inf,inf,inf,inf,inf,inf,inf,inf,inf,inf,inf,inf,inf,inf,inf,inf,inf,inf,inf,inf,inf,inf,inf,inf,inf,inf,inf,inf,inf,inf,inf,inf,inf,inf,inf,8.03119,8.0241,8.03742,8.00459,8.01056,8.02252,8.03526,8.04235,8.05708,8.05851,8.07206,8.08666,8.12126,8.15102,8.17032,8.18096,8.21701,8.27076,8.30505,8.32739,8.37598,8.42086,8.46507,8.53517,8.56956,8.62428,8.69497,inf,inf,inf,inf,inf,inf,inf,inf,inf,2.76622,2.70577,2.64263,2.57012,2.52478,2.45066,2.40339,2.3474,2.2906,2.25997,2.2137,2.18799,2.22816,2.28346,2.31373,2.35243,2.38679,2.3391,2.29498,2.26823,2.23848,2.21332,2.16754,2.14412,2.12711,2.10404,2.08687,2.0604,2.05484,2.03801,2.00518,1.98499,1.9569,1.95742,1.94266,1.90518,1.91329,1.88785,1.58937,1.57422,1.5777,1.58001,1.5378,1.54848,1.52987,1.53306,1.53593,1.52939,1.50807,1.51814,1.50208,1.51576,1.50379,1.50305
1.3727,1.37691,1.372,1.36842,1.37534,1.35222,1.36468,1.38159,1.38193,1.37369,1.38246,1.38285,1.39889,1.39837,1.40038,3.19604,3.20281,3.1925,3.21525,3.26407,3.26385,3.28867,3.29669,3.34118,3.32571,3.37797,3.39018,3.41558,3.44264,3.42836,3.31755,3.21058,3.12118,3.01057,2.92765,2.84722,2.80499,2.70835,2.64473,2.58624,2.53225,2.48381,2.09996,2.07787,2.02189,2.00396,1.97294,1.93984,1.97749,2.02029,2.06436,2.08415,2.0888,2.06007,2.00164,2.00151,1.95436,1.93446,1.91515,1.89242,1.87069,1.85278,1.82133,1.817,1.79694,1.78024,1.76911,1.74124,1.74353,1.72113,1.72405,1.69925,1.69316,1.68262,1.66357,1.6572,1.65225,1.6429,1.62829,1.61168,1.63755,1.62664,1.61912,1.59104,1.60691,1.62307,1.57733,1.59461,1.58972,1.59242,1.5863,1.58245,1.60053,1.5877,1.58679,1.56875,1.6074,1.58074,1.58446,1.60993,1.59971,1.61471,1.59805,1.6399,1.61727,1.63417,1.62884,1.64067,1.64517,1.65703,1.68906,1.68632,1.69654,1.71102,1.72234,1.73968,1.74713,inf,inf,inf,inf,inf,inf,inf,inf,inf,inf,inf,inf,inf,inf,inf,inf,inf,inf,inf,inf,inf,inf,inf,inf,inf,inf,inf,inf,inf,inf,inf,inf,inf,inf,inf,inf,inf,inf,inf,inf,inf,inf,inf,inf,inf,inf,inf,inf,inf,inf,inf,inf,inf,inf,inf,inf,inf,inf,inf,inf,inf,inf,inf,inf,inf,inf,inf,inf,inf,inf,inf,inf,inf,inf,inf,inf,inf,inf,inf,inf,inf,inf,inf,inf,inf,inf,inf,inf,inf,inf,inf,inf,inf,inf,inf,inf,inf,inf,inf,inf,inf,inf,inf,inf,inf,inf,inf,inf,inf,inf,inf,inf,inf,inf,inf,inf,inf,inf,inf,inf,inf,inf,inf,inf,inf,inf,inf,inf,inf,inf,inf,inf,inf,inf,inf,inf,inf,inf,inf,inf,inf,inf,inf,inf,inf,inf,inf,inf,inf,inf,8.33121,8.32513,8.32666,8.32212,8.30298,8.31143,8.31845,8.31908,8.33353,8.3386,8.3546,8.36862,8.37623,8.39581,8.44515,8.46948,8.48347,8.5208,8.53425,8.60324,8.64343,8.67609,8.72737,8.78792,8.84433,8.8813,inf,inf,inf,inf,inf,inf,2.95731,2.85593,2.74422,2.67929,2.60248,2.50834,2.48054,2.38675,2.35795,2.33695,2.36965,2.40878,2.45024,2.47065,2.46947,2.43045,2.37516,2.34389,2.30534,2.24399,2.21779,2.18095,2.1644,2.13,2.09112,2.06595,2.04746,2.03931,1.97755,1.97806,1.96536,1.93551,1.57792,1.55544,1.55366,1.52807,1.54144,1.52731,1.51107,1.49067,1.50417,1.46435,1.4582,1.44193,1.4432,1.4378,1.42386,1.42744,1.40062,1.40864,1.40396,1.40885,1.3887,1.3882,1.38614,1.38645,1.35794,1.38046,1.37603,1.3559,1.36653
1.39741,1.37077,1.38194,1.36947,1.39483,1.39554,1.37426,1.37138,1.37967,1.38834,1.40804,3.17319,3.19887,3.22582,3.22667,3.23514,3.26444,3.29707,3.29892,3.32533,3.3697,3.38873,3.40055,3.41929,3.4724,3.40092,3.29577,3.18406,3.10204,3.00854,2.91655,2.84041,2.77009,2.7111,2.65006,2.55395,2.52039,2.47135,2.09111,2.06805,2.02703,2.00002,1.95129,1.93906,1.97389,2.02363,2.04754,2.09774,2.04989,2.0233,2.01017,1.95988,1.95875,1.91398,1.89229,1.88926,1.87178,1.85193,1.85144,1.82231,1.8066,1.77823,1.76341,1.74288,1.73073,1.73569,1.69627,1.68974,1.69054,1.67438,1.67064,1.66181,1.6515,1.63909,1.64062,1.62507,1.6309,1.61723,1.62231,1.61251,1.60292,1.60186,1.59558,1.60499,1.58692,1.59238,1.58612,1.59522,1.56924,1.58778,1.58628,1.59851,1.59486,1.57897,1.58111,1.60291,1.60671,1.60807,1.59898,1.62791,1.62888,1.61319,1.64302,1.64829,1.66863,1.66682,1.65334,1.71426,1.705,1.7105,1.71438,1.71986,1.74738,inf,inf,inf,inf,inf,inf,inf,inf,inf,inf,inf,inf,inf,inf,inf,inf,inf,inf,inf,inf,inf,inf,inf,inf,inf,inf,inf,inf,inf,inf,inf,inf,inf,inf,inf,inf,inf,inf,inf,inf,inf,inf,inf,inf,inf,inf,inf,inf,inf,inf,inf,inf,inf,inf,inf,inf,inf,inf,inf,inf,inf,inf,inf,inf,inf,inf,inf,inf,inf,inf,inf,inf,inf,inf,inf,inf,inf,inf,inf,inf,inf,inf,inf,inf,inf,inf,inf,inf,inf,inf,inf,inf,inf,inf,inf,inf,inf,inf,inf,inf,inf,inf,inf,inf,inf,inf,inf,inf,inf,inf,inf,inf,inf,inf,inf,inf,inf,inf,inf,inf,inf,inf,inf,inf,inf,inf,inf,inf,inf,inf,inf,inf,inf,inf,inf,inf,inf,inf,inf,inf,inf,inf,inf,inf,inf,inf,inf,inf,inf,inf,8.33697,8.3213,8.30961,8.32642,8.30563,8.32404,8.31386,8.31272,8.33685,8.34626,8.35075,8.35368,8.39505,8.39875,8.42765,8.47474,8.49091,8.53478,8.57786,8.59742,8.64897,8.67319,8.75165,8.78341,8.83982,8.88908,inf,inf,inf,inf,inf,inf,2.91946,2.83462,2.74859,2.66182,2.59622,2.49386,2.45448,2.40498,2.31596,2.32735,2.38201,2.40851,2.43329,2.47513,2.47694,2.4232,2.36626,2.30735,2.29929,2.24738,2.22076,2.19249,2.15103,2.11749,2.09618,2.06895,2.03527,2.02132,1.99019,1.98622,1.9363,1.60287,1.57127,1.58298,1.54654,1.5375,1.52576,1.52004,1.50878,1.48484,1.49336,1.45951,1.46936,1.45258,1.42578,1.43763,1.42018,1.40767,1.40032,1.41828,1.41457,1.4016,1.38198,1.37533,1.40087,1.39356,1.39604,1.38545,1.35721,1.37088,1.36978,1.36591,1.36645,1.37204,1.39061
1.37285,1.39746,1.3801,1.38068,1.38353,1.40089,1.4061,1.39769,3.17931,3.20562,3.20341,3.2216,3.24011,3.24643,3.28146,3.29979,3.31248,3.33637,3.365,3.39281,3.42047,3.45688,3.42394,3.28946,3.19807,3.10557,3.02586,2.93472,2.86456,2.77445,2.70958,2.63289,2.58185,2.53493,2.47401,2.10255,2.06024,2.02786,1.97762,1.94749,1.96423,1.96101,2.03,2.07004,2.09621,2.08062,2.04265,2.01009,1.97677,1.95786,1.94085,1.90929,1.88666,1.8888,1.86432,1.83523,1.80992,1.79757,1.75822,1.7641,1.75657,1.754,1.70655,1.71678,1.70107,1.68493,1.65594,1.65845,1.67062,1.64748,1.63405,1.63842,1.63409,1.62112,1.62657,1.62257,1.60091,1.61195,1.58608,1.61152,1.59552,1.59047,1.58692,1.58274,1.59956,1.57147,1.58673,1.57862,1.57987,1.5982,1.5791,1.60112,1.60238,1.59268,1.59379,1.60416,1.61807,1.62474,1.64303,1.64125,1.64214,1.64602,1.65168,1.66942,1.67628,1.6928,1.70325,1.73113,1.71893,1.73607,inf,inf,inf,inf,inf,inf,inf,inf,inf,inf,inf,inf,inf,inf,inf,inf,inf,inf,inf,inf,inf,inf,inf,inf,inf,inf,inf,inf,inf,inf,inf,inf,inf,inf,inf,inf,inf,inf,inf,inf,inf,inf,inf,inf,inf,inf,inf,inf,inf,inf,inf,inf,inf,inf,inf,inf,inf,inf,inf,inf,inf,inf,inf,inf,inf,inf,inf,inf,inf,inf,inf,inf,inf,inf,inf,inf,inf,inf,inf,inf,inf,inf,inf,inf,inf,inf,inf,inf,inf,inf,inf,inf,inf,inf,inf,inf,inf,inf,inf,inf,inf,inf,inf,inf,inf,inf,inf,inf,inf,inf,inf,inf,inf,inf,inf,inf,inf,inf,inf,inf,inf,inf,inf,inf,inf,inf,inf,inf,inf,inf,inf,inf,inf,inf,inf,inf,inf,inf,inf,inf,inf,inf,inf,inf,inf,inf,inf,inf,inf,inf,8.34449,8.32748,8.31521,8.31241,8.30908,8.30873,8.32299,8.31311,8.31766,8.35235,8.34965,8.37409,8.38918,8.42052,8.43102,8.46058,8.48337,8.52702,8.55833,8.59398,8.6376,8.68287,8.73923,8.77877,8.84168,8.89289,inf,inf,inf,inf,inf,inf,2.9224,2.82498,2.74034,2.6752,2.57337,2.50844,2.44612,2.38745,2.33589,2.32485,2.39567,2.40352,2.44487,2.48347,2.47494,2.4302,2.3798,2.32984,2.28402,2.26106,2.23214,2.18003,2.14022,2.13336,2.08912,2.06905,2.04792,2.02541,1.98433,1.97726,1.94336,1.91884,1.59255,1.5501,1.55244,1.5411,1.51753,1.52449,1.50295,1.50085,1.47721,1.46777,1.4562,1.44755,1.44025,1.43495,1.43766,1.42789,1.41043,1.41376,1.39229,1.37724,1.40123,1.38099,1.3711,1.39166,1.37896,1.36607,1.36475,1.36821,1.37766,1.36179,1.36735,1.36521,1.3599,1.37463,1.36035,1.36679
1.34176,1.37504,1.37534,1.36668,1.36907,1.37234,1.37753,1.38617,1.38594,1.39952,1.38567,1.3838,1.40259,3.17835,3.19312,3.19361,3.22262,3.23028,3.27719,3.29697,3.31602,3.33254,3.35452,3.36489,3.39075,3.4285,3.44651,3.40085,3.29329,3.17533,3.08072,3.01174,2.91283,2.84508,2.76932,2.68863,2.63655,2.59362,2.50761,2.45197,2.09124,2.06219,2.02151,1.98956,1.96576,1.9422,1.97206,2.0082,2.06936,2.09622,2.05198,2.03428,1.99907,1.96902,1.95452,1.94168,1.88989,1.87891,1.86148,1.854,1.8261,1.80702,1.79414,1.78651,1.75346,1.76258,1.73531,1.72579,1.69799,1.67125,1.68764,1.68138,1.66315,1.64793,1.63763,1.63872,1.62601,1.61682,1.62952,1.59968,1.62271,1.59321,1.62162,1.60103,1.59457,1.61308,1.59608,1.59004,1.58456,1.59676,1.58796,1.59155,1.58482,1.58367,1.60631,1.58352,1.60499,1.6047,1.60997,1.60809,1.61257,1.63248,1.60995,1.6267,1.63916,1.63472,1.64938,1.66293,1.68369,1.69144,1.70209,1.70603,1.73734,1.74026,1.73442,inf,inf,inf,inf,inf,inf,inf,inf,inf,inf,inf,inf,inf,inf,inf,inf,inf,inf,inf,inf,inf,inf,inf,inf,inf,inf,inf,inf,inf,inf,inf,inf,inf,inf,inf,inf,inf,inf,inf,inf,inf,inf,inf,inf,inf,inf,inf,inf,inf,inf,inf,inf,inf,inf,inf,inf,inf,inf,inf,inf,inf,inf,inf,inf,inf,inf,inf,inf,inf,inf,inf,inf,inf,inf,inf,inf,inf,inf,inf,inf,inf,inf,inf,inf,inf,inf,inf,inf,inf,inf,inf,inf,inf,inf,inf,inf,inf,inf,inf,inf,inf,inf,inf,inf,inf,inf,inf,inf,inf,inf,inf,inf,inf,inf,inf,inf,inf,inf,inf,inf,inf,inf,inf,inf,inf,inf,inf,inf,inf,inf,inf,inf,inf,inf,inf,inf,inf,inf,inf,inf,inf,inf,inf,inf,inf,inf,inf,inf,inf,8.34291,8.33029,8.31936,8.30688,8.30028,8.32629,8.33463,8.31345,8.33239,8.33733,8.3457,8.35334,8.37825,8.39715,8.444,8.43977,8.47315,8.51104,8.52799,8.56988,8.61738,8.6367,8.70777,8.75113,8.79138,8.85752,8.9194,inf,inf,inf,inf,inf,inf,2.88547,2.80894,2.72977,2.65274,2.57858,2.50166,2.44744,2.35603,2.32244,2.34097,2.38385,2.41481,2.44082,2.47751,2.46558,2.42376,2.37647,2.33289,2.29183,2.231,2.19127,2.18279,2.12342,2.10487,2.06459,2.06404,2.02146,2.00952,1.97835,1.96833,1.94539,1.58469,1.5898,1.56524,1.56239,1.52239,1.50741,1.4999,1.49191,1.48202,1.47104,1.47082,1.44064,1.42974,1.4441,1.42587,1.41923,1.41302,1.41418,1.40853,1.41021,1.39521,1.40773,1.37814,1.3922,1.39818,1.38617,1.36973,1.37502,1.35542,1.36555,1.37221,1.37601
1.36896,1.35965,1.36049,1.37179,1.38444,1.37401,1.36573,1.37523,1.37099,1.35592,1.36773,1.38189,1.38095,1.39411,1.37484,1.39447,1.39112,3.18239,3.19656,3.20413,3.21514,3.26343,3.26547,3.27252,3.29051,3.32983,3.35189,3.35601,3.41336,3.44249,3.43784,3.39643,3.27505,3.19568,3.07396,3.013,2.91865,2.82412,2.75967,2.67045,2.62387,2.56459,2.50188,2.46975,2.1152,2.05292,2.0019,1.96868,1.96308,1.93699,1.99183,2.02908,2.05305,2.09055,2.06437,2.03966,2.00539,1.98631,1.94796,1.93979,1.91869,1.86885,1.85059,1.8365,1.82335,1.79848,1.78839,1.76433,1.7648,1.73204,1.74639,1.72307,1.72014,1.69089,1.6808,1.66671,1.65883,1.66825,1.63912,1.64142,1.62501,1.6308,1.62482,1.61569,1.63698,1.59352,1.61203,1.61112,1.58804,1.59582,1.61068,1.59128,1.58117,1.58351,1.57922,1.59047,1.58339,1.58887,1.59274,1.61138,1.60031,1.5879,1.60252,1.59042,1.60822,1.618,1.62279,1.62153,1.63012,1.64467,1.65633,1.65293,1.6818,1.68316,1.69216,1.71593,1.73391,1.71594,1.75478,inf,inf,inf,inf,inf,inf,inf,inf,inf,inf,inf,inf,inf,inf,inf,inf,inf,inf,inf,inf,inf,inf,inf,inf,inf,inf,inf,inf,inf,inf,inf,inf,inf,inf,inf,inf,inf,inf,inf,inf,inf,inf,inf,inf,inf,inf,inf,inf,inf,inf,inf,inf,inf,inf,inf,inf,inf,inf,inf,inf,inf,inf,inf,inf,inf,inf,inf,inf,inf,inf,inf,inf,inf,inf,inf,inf,inf,inf,inf,inf,inf,inf,inf,inf,inf,inf,inf,inf,inf,inf,inf,inf,inf,inf,inf,inf,inf,inf,inf,inf,inf,inf,inf,inf,inf,inf,inf,inf,inf,inf,inf,inf,inf,inf,inf,inf,inf,inf,inf,inf,inf,inf,inf,inf,inf,inf,inf,inf,inf,inf,inf,inf,inf,inf,inf,inf,inf,inf,inf,inf,inf,inf,inf,inf,inf,inf,inf,inf,inf,8.33242,8.35022,8.33188,8.30528,8.31579,8.32485,8.30747,8.30846,8.32142,8.35971,8.34163,8.35767,8.36838,8.39587,8.40706,8.44105,8.47447,8.4938,8.51673,8.55387,8.60063,8.63771,8.69312,8.74476,8.79975,8.83297,8.91017,inf,inf,inf,inf,inf,inf,2.91228,2.80206,2.70391,2.6479,2.58333,2.49635,2.45528,2.37428,2.3277,2.33179,2.39342,2.41562,2.44399,2.50979,2.46411,2.39989,2.36633,2.32438,2.28434,2.24284,2.19917,2.18788,2.16263,2.11715,2.08492,2.05583,2.02113,1.9993,1.98812,1.95759,1.94353,1.6048,1.55406,1.56261,1.56889,1.53468,1.51596,1.50715,1.48878,1.47732,1.46993,1.4463,1.45833,1.45101,1.43469,1.43454,1.42103,1.41668,1.40475,1.42319,1.38755,1.40968,1.39707,1.39256,1.36787,1.38754,1.35571,1.36687,1.35865
1.37032,1.34301,1.37042,1.38326,1.36037,1.3627,1.36337,1.38125,1.36908,1.38749,1.37897,1.37608,1.37659,1.39338,1.38431,1.39132,1.40385,3.18013,3.21172,3.20934,3.22588,3.25758,3.26542,3.2797,3.29872,3.33874,3.34044,3.3761,3.39992,3.41181,3.44203,3.39753,3.28156,3.19188,3.09636,3.02889,2.91238,2.82952,2.75118,2.6917,2.62865,2.58277,2.50894,2.45712,2.10512,2.04212,2.02123,1.97666,1.94686,1.94793,1.96662,2.02417,2.04354,2.0919,2.05453,2.04199,1.98925,1.97587,1.94511,1.94082,1.9161,1.8814,1.85355,1.83708,1.84592,1.83141,1.78321,1.77432,1.75871,1.73916,1.7351,1.72032,1.68792,1.69713,1.68751,1.67356,1.66058,1.65364,1.66112,1.63748,1.60936,1.60499,1.61346,1.60741,1.61352,1.59321,1.58981,1.60203,1.59284,1.59381,1.58428,1.58879,1.60424,1.58114,1.60079,1.56624,1.6075,1.61258,1.58844,1.61223,1.59611,1.61615,1.60258,1.62413,1.61863,1.59923,1.63645,1.62739,1.64605,1.63974,1.65972,1.66023,1.6781,1.68333,1.68777,1.7108,1.70993,1.72047,1.75784,inf,inf,inf,inf,inf,inf,inf,inf,inf,inf,inf,inf,inf,inf,inf,inf,inf,inf,inf,inf,inf,inf,inf,inf,inf,inf,inf,inf,inf,inf,inf,inf,inf,inf,inf,inf,inf,inf,inf,inf,inf,inf,inf,inf,inf,inf,inf,inf,inf,inf,inf,inf,inf,inf,inf,inf,inf,inf,inf,inf,inf,inf,inf,inf,inf,inf,inf,inf,inf,inf,inf,inf,inf,inf,inf,inf,inf,inf,inf,inf,inf,inf,inf,inf,inf,inf,inf,inf,inf,inf,inf,inf,inf,inf,inf,inf,inf,inf,inf,inf,inf,inf,inf,inf,inf,inf,inf,inf,inf,inf,inf,inf,inf,inf,inf,inf,inf,inf,inf,inf,inf,inf,inf,inf,inf,inf,inf,inf,inf,inf,inf,inf,inf,inf,inf,inf,inf,inf,inf,inf,inf,inf,inf,inf,inf,inf,inf,inf,inf,8.3603,8.3328,8.3314,8.31273,8.32113,8.30436,8.30654,8.33302,8.3285,8.31807,8.34541,8.35412,8.37194,8.39715,8.42175,8.4284,8.47167,8.51207,8.52885,8.569,8.60026,8.65981,8.68422,8.75105,8.7961,8.84781,8.9081,inf,inf,inf,inf,inf,inf,2.89807,2.83704,2.73838,2.64823,2.5804,2.50342,2.43804,2.38476,2.32017,2.3494,2.371,2.43925,2.44992,2.48346,2.45215,2.39727,2.34409,2.3324,2.28394,2.24092,2.21087,2.16658,2.14204,2.11091,2.08634,2.088,2.03649,2.01751,1.98577,1.95755,1.94338,1.59892,1.57326,1.55827,1.55399,1.53622,1.54279,1.48278,1.49775,1.49341,1.46241,1.462,1.44544,1.46695,1.4232,1.44238,1.41695,1.42786,1.40067,1.39376,1.4164,1.39498,1.38402,1.3918,1.38935,1.38486,1.38433,1.38164,1.37565
1.36992,1.36442,1.35904,1.38076,1.38177,1.35651,1.36343,1.37538,1.36744,1.35376,1.3725,1.38897,1.3714,1.39169,1.39533,1.38606,1.40423,1.41645,1.43294,1.42192,1.44318,1.45627,1.46148,1.4657,1.45379,1.48175,1.48084,1.49694,1.5238,1.51617,3.48217,3.516,3.54291,3.5804,3.63053,3.61242,3.50234,3.4127,3.34449,3.255,3.1901,3.10239,3.05294,2.98869,2.92987,2.85993,2.81385,2.74204,2.71349,2.66741,2.34559,2.32175,2.27512,2.24283,2.20919,2.23823,2.27705,2.34025,2.38336,2.34703,2.31966,2.31154,2.27545,2.25017,2.22615,2.22456,2.20176,2.16582,2.15072,2.12981,2.10558,2.11942,2.10574,2.08088,2.07679,2.05172,2.04554,2.0563,2.02625,2.00747,2.00515,2.00561,2.00304,1.99449,1.99387,1.98946,1.95464,1.98655,1.97328,1.96871,1.96032,1.96111,1.93928,1.97021,1.97234,1.96248,1.96954,1.97664,1.96362,1.96984,1.97521,1.96591,1.98603,1.98603,2.01047,2.00086,2.02684,2.03737,2.03038,2.03359,2.04465,2.08694,2.07095,2.08684,inf,inf,inf,inf,inf,inf,inf,inf,inf,inf,inf,inf,inf,inf,inf,inf,inf,inf,inf,inf,inf,inf,inf,inf,inf,inf,inf,inf,inf,inf,inf,inf,inf,inf,inf,inf,inf,inf,inf,inf,inf,inf,inf,inf,inf,inf,inf,inf,inf,inf,inf,inf,inf,inf,inf,inf,inf,inf,inf,inf,inf,inf,inf,inf,inf,inf,inf,inf,inf,inf,inf,inf,inf,inf,inf,inf,inf,inf,inf,inf,inf,inf,inf,inf,inf,inf,inf,inf,inf,inf,inf,inf,inf,inf,inf,inf,inf,inf,inf,inf,inf,inf,inf,inf,inf,inf,inf,inf,inf,inf,inf,inf,inf,inf,inf,inf,inf,inf,inf,inf,inf,inf,inf,inf,inf,inf,inf,inf,inf,inf,inf,inf,inf,inf,inf,inf,inf,inf,inf,inf,inf,inf,inf,inf,inf,inf,inf,inf,inf,inf,inf,inf,inf,7.96779,7.94926,7.94888,7.93902,7.95318,7.94501,7.94185,7.94962,7.96368,7.95371,7.97841,7.99417,8.02246,8.02137,8.03357,8.05736,8.08529,8.11447,8.14939,8.18252,8.21316,8.25508,8.29567,8.3312,8.39039,8.45206,8.51226,8.55342,inf,inf,inf,inf,inf,inf,inf,inf,2.64876,2.56235,2.48667,2.43437,2.38078,2.29757,2.27366,2.20718,2.15615,2.10106,2.08554,2.04542,2.06854,2.08879,2.12683,2.18561,2.1998,2.22321,2.18672,2.14274,2.11234,2.09799,2.04326,2.02452,1.9963,1.97731,1.96904,1.92163,1.89855,1.88856,1.88727,1.87577,1.83322,1.82677,1.81759,1.81643,1.78,1.77461,1.74135,1.73472,1.73025,1.41961,1.43519,1.40692,1.40528,1.40182,1.38902,1.37948,1.38536,1.40418,1.36735,1.38487,1.37064,1.38349,1.37245,1.37215,1.37991
1.3822,1.35531,1.35708,1.36121,1.38171,1.37739,1.37045,1.38222,1.38872,1.39124,1.39674,1.40554,1.40871,1.41422,1.44121,1.41938,1.44565,1.44895,1.45772,1.46419,1.47796,1.50815,1.48868,1.51491,3.46572,3.47935,3.51602,3.55751,3.59278,3.63075,3.58128,3.50909,3.40245,3.32159,3.25903,3.16396,3.09271,3.01855,2.96952,2.9044,2.8312,2.80358,2.73438,2.70507,2.3706,2.3576,2.2973,2.28386,2.24546,2.2246,2.24104,2.3036,2.334,2.38287,2.33148,2.32438,2.29938,2.26892,2.24249,2.23417,2.19154,2.20066,2.17096,2.14414,2.10723,2.11789,2.08809,2.0707,2.07447,2.05888,2.06315,2.01781,2.02371,2.01957,2.00425,1.98109,1.99598,1.99537,1.99485,1.97841,1.96352,1.9759,1.96582,1.9627,1.95195,1.95789,1.96681,1.97855,1.96087,1.96919,1.9617,1.95324,1.97686,1.9663,1.97726,2.00114,1.96877,1.97566,1.98816,2.00824,1.9916,2.02289,2.02342,2.04074,2.03574,2.06035,2.08636,2.07341,inf,inf,inf,inf,inf,inf,inf,inf,inf,inf,inf,inf,inf,inf,inf,inf,inf,inf,inf,inf,inf,inf,inf,inf,inf,inf,inf,inf,inf,inf,inf,inf,inf,inf,inf,inf,inf,inf,inf,inf,inf,inf,inf,inf,inf,inf,inf,inf,inf,inf,inf,inf,inf,inf,inf,inf,inf,inf,inf,inf,inf,inf,inf,inf,inf,inf,inf,inf,inf,inf,inf,inf,inf,inf,inf,inf,inf,inf,inf,inf,inf,inf,inf,inf,inf,inf,inf,inf,inf,inf,inf,inf,inf,inf,inf,inf,inf,inf,inf,inf,inf,inf,inf,inf,inf,inf,inf,inf,inf,inf,inf,inf,inf,inf,inf,inf,inf,inf,inf,inf,inf,inf,inf,inf,inf,inf,inf,inf,inf,inf,inf,inf,inf,inf,inf,inf,inf,inf,inf,inf,inf,inf,inf,inf,inf,inf,inf,inf,inf,inf,inf,inf,inf,inf,7.96616,7.98674,7.95542,7.94643,7.94863,7.93328,7.9314,7.94478,7.94623,7.96671,7.99016,7.99015,7.99372,8.01697,8.04381,8.07811,8.09632,8.10405,8.16828,8.19466,8.22498,8.25449,8.32026,8.36551,8.40451,8.4565,8.52246,8.57605,inf,inf,inf,inf,inf,inf,inf,inf,2.63398,2.55122,2.48462,2.43348,2.36582,2.31507,2.25018,2.20149,2.14163,2.12376,2.08692,2.0234,2.06563,2.09731,2.13737,2.15424,2.23387,2.20247,2.1681,2.13738,2.08198,2.07879,2.06089,2.02178,2.00318,1.97841,1.9608,1.95151,1.89567,1.90932,1.88595,1.86215,1.84312,1.82158,1.82856,1.7871,1.77834,1.77987,1.76002,1.74367,1.71993,1.43003,1.41442,1.41787,1.42163,1.40193,1.39307,1.37699,1.38208,1.37469,1.38694,1.36963,1.3715,1.38052,1.36643,1.36222,1.37001,1.36109,1.36924,1.37656,1.35802,1.37225
1.37281,1.35954,1.37207,1.38226,1.3681,1.36585,1.3652,1.36509,1.37224,1.37325,1.36915,1.37567,1.3809,1.37487,1.38247,1.38428,1.40059,1.38592,1.38585,1.41786,1.38974,1.39963,1.40882,1.44072,1.43141,1.4402,1.46685,1.46659,1.49091,1.46025,1.46886,1.51695,1.51749,1.53929,1.54561,1.55166,3.56347,3.60668,3.64048,3.676,3.61742,3.5379,3.46299,3.37373,3.27966,3.23418,3.1568,3.09689,3.02524,2.97181,2.90749,2.8775,2.82511,2.77145,2.72437,2.39881,2.38059,2.33488,2.2996,2.28729,2.32391,2.3577,2.4009,2.43106,2.41429,2.38873,2.36504,2.3434,2.3239,2.30658,2.28002,2.26185,2.22082,2.23913,2.19975,2.18438,2.19316,2.17297,2.15603,2.14136,2.14499,2.12448,2.09133,2.11343,2.07842,2.07875,2.07018,2.07273,2.05216,2.06797,2.06247,2.04246,2.0501,2.05901,2.02307,2.04011,2.03587,2.04327,2.05637,2.05516,2.05993,2.04533,2.04848,2.0451,2.06557,2.05596,2.07088,2.10442,2.08291,2.09832,2.10233,2.10879,2.12877,2.13622,2.13851,2.1571,inf,inf,inf,inf,inf,inf,inf,inf,inf,inf,inf,inf,inf,inf,inf,inf,inf,inf,inf,inf,inf,inf,inf,inf,inf,inf,inf,inf,inf,inf,inf,inf,inf,inf,inf,inf,inf,inf,inf,inf,inf,inf,inf,inf,inf,inf,inf,inf,inf,inf,inf,inf,inf,inf,inf,inf,inf,inf,inf,inf,inf,inf,inf,inf,inf,inf,inf,inf,inf,inf,inf,inf,inf,inf,inf,inf,inf,inf,inf,inf,inf,inf,inf,inf,inf,inf,inf,inf,inf,inf,inf,inf,inf,inf,inf,inf,inf,inf,inf,inf,inf,inf,inf,inf,inf,inf,inf,inf,inf,inf,inf,inf,inf,inf,inf,inf,inf,inf,inf,inf,inf,inf,inf,inf,inf,inf,inf,inf,inf,inf,inf,inf,inf,inf,inf,inf,inf,inf,inf,inf,inf,inf,inf,inf,inf,inf,inf,inf,inf,inf,inf,inf,inf,inf,inf,7.88059,7.88553,7.88178,7.8762,7.85402,7.84921,7.86494,7.87214,7.87025,7.88359,7.91007,7.89228,7.92277,7.94501,7.93663,7.98466,8.00026,8.04485,8.0703,8.0923,8.14612,8.17785,8.23428,8.2952,8.3381,8.37393,8.44549,8.47872,inf,inf,inf,inf,inf,inf,inf,inf,inf,2.5375,2.47831,2.40225,2.33603,2.30456,2.23014,2.19934,2.16009,2.09918,2.04214,2.01118,1.99283,1.97763,2.01822,2.0556,2.10514,2.1344,2.16033,2.12586,2.08808,2.08191,2.0476,2.01977,2.00691,1.97519,1.9634,1.92048,1.91478,1.89687,1.8701,1.85391,1.85482,1.81354,1.80473,1.80521,1.79065,1.78225,1.77544,1.76032,1.72669,1.71532,1.72205,1.71053,1.4156,1.41157,1.38654,1.38752,1.39765,1.36736,1.39433,1.38018,1.36846
1.36199,1.3844,1.37827,1.37961,1.36644,1.37588,1.36534,1.36977,1.37086,1.37103,1.38923,1.37978,1.3638,1.3812,1.37039,1.38456,1.37321,1.37418,1.38918,1.39502,1.4012,1.42818,1.40421,1.43293,1.42069,1.42974,1.44695,1.43841,1.46919,1.46931,1.46361,1.49917,1.5113,1.50845,1.55,1.54061,1.55449,1.56396,1.59219,3.64966,3.67823,3.71305,3.65878,3.56472,3.49964,3.40756,3.34247,3.27783,3.19886,3.12742,3.07455,3.01854,2.97378,2.89977,2.8569,2.84148,2.77217,2.46435,2.43722,2.39741,2.37267,2.34384,2.36538,2.42468,2.51219,2.49085,2.47113,2.45719,2.41113,2.41484,2.37855,2.36997,2.32737,2.31556,2.28805,2.27505,2.25679,2.24907,2.2444,2.22662,2.2036,2.21471,2.20625,2.16156,2.17381,2.16969,2.16839,2.14989,2.12585,2.14599,2.12401,2.12318,2.12231,2.11835,2.1103,2.09821,2.09731,2.1135,2.12281,2.14223,2.11536,2.13705,2.14563,2.13814,2.14,2.12836,2.12964,2.12321,2.14468,2.16358,2.16751,2.17003,2.17549,2.19103,2.21553,2.22397,2.2272,inf,inf,inf,inf,inf,inf,inf,inf,inf,inf,inf,inf,inf,inf,inf,inf,inf,inf,inf,inf,inf,inf,inf,inf,inf,inf,inf,inf,inf,inf,inf,inf,inf,inf,inf,inf,inf,inf,inf,inf,inf,inf,inf,inf,inf,inf,inf,inf,inf,inf,inf,inf,inf,inf,inf,inf,inf,inf,inf,inf,inf,inf,inf,inf,inf,inf,inf,inf,inf,inf,inf,inf,inf,inf,inf,inf,inf,inf,inf,inf,inf,inf,inf,inf,inf,inf,inf,inf,inf,inf,inf,inf,inf,inf,inf,inf,inf,inf,inf,inf,inf,inf,inf,inf,inf,inf,inf,inf,inf,inf,inf,inf,inf,inf,inf,inf,inf,inf,inf,inf,inf,inf,inf,inf,inf,inf,inf,inf,inf,inf,inf,inf,inf,inf,inf,inf,inf,inf,inf,inf,inf,inf,inf,inf,inf,inf,inf,inf,inf,inf,inf,inf,inf,inf,inf,7.80965,7.80309,7.78546,7.79959,7.78167,7.79469,7.79708,7.80881,7.79283,7.81051,7.81502,7.83917,7.83572,7.88608,7.90088,7.89667,7.92614,7.97896,8.00165,8.03023,8.08456,8.1201,8.1511,8.20648,8.24553,8.31145,8.35304,8.418,inf,inf,inf,inf,inf,inf,inf,inf,inf,inf,2.48614,2.42142,2.35154,2.29989,2.23745,2.17979,2.15247,2.09711,2.07778,2.04119,1.98425,1.96303,1.92825,1.95994,2.00907,2.03721,2.07792,2.09736,2.10498,2.08339,2.04264,2.02118,2.00008,1.98112,1.94744,1.94321,1.9219,1.89699,1.88157,1.8828,1.83459,1.823,1.81517,1.77557,1.76192,1.75601,1.75913,1.75262,1.72225,1.71795,1.7104,1.72207,1.69894,1.69041,1.69106,1.39277,1.38509,1.38455,1.377,1.36261
1.43504,1.43109,1.43787,1.43669,1.46756,1.47194,1.45521,1.46165,1.4833,1.47387,1.48131,1.50749,1.49925,1.49036,1.50877,1.52555,1.54284,1.55112,1.55158,1.57775,1.58979,1.6052,1.6382,1.62363,3.67614,3.70714,3.75361,3.74771,3.66545,3.55722,3.49158,3.4167,3.33695,3.24417,3.19378,3.11813,3.08401,3.01606,2.96687,2.92597,2.8728,2.82207,2.52029,2.47104,2.43376,2.39855,2.36951,2.39334,2.47179,2.52532,2.54306,2.49819,2.47053,2.44369,2.4189,2.39797,2.37226,2.34351,2.34994,2.3136,2.30466,2.28943,2.28594,2.24305,2.25611,2.21711,2.21678,2.20681,2.18929,2.1912,2.15989,2.17893,2.1766,2.14863,2.15271,2.12346,2.12999,2.12643,2.12835,2.11876,2.12937,2.11041,2.10651,2.11613,2.12418,2.11276,2.11735,2.11697,2.12413,2.14172,2.12044,2.14551,2.13628,2.14931,2.13857,2.15657,2.16472,2.19871,2.19118,2.20834,2.21345,inf,inf,inf,inf,inf,inf,inf,inf,inf,inf,inf,inf,inf,inf,inf,inf,inf,inf,inf,inf,inf,inf,inf,inf,inf,inf,inf,inf,inf,inf,inf,inf,inf,inf,inf,inf,inf,inf,inf,inf,inf,inf,inf,inf,inf,inf,inf,inf,inf,inf,inf,inf,inf,inf,inf,inf,inf,inf,inf,inf,inf,inf,inf,inf,inf,inf,inf,inf,inf,inf,inf,inf,inf,inf,inf,inf,inf,inf,inf,inf,inf,inf,inf,inf,inf,inf,inf,inf,inf,inf,inf,inf,inf,inf,inf,inf,inf,inf,inf,inf,inf,inf,inf,inf,inf,inf,inf,inf,inf,inf,inf,inf,inf,inf,inf,inf,inf,inf,inf,inf,inf,inf,inf,inf,inf,inf,inf,inf,inf,inf,inf,inf,inf,inf,inf,inf,inf,inf,inf,inf,inf,inf,inf,inf,inf,inf,inf,inf,inf,inf,inf,inf,inf,inf,inf,inf,inf,7.7868,7.82919,7.782,7.79716,7.78918,7.77027,7.789,7.80467,7.78277,7.80929,7.82315,7.84552,7.85349,7.85821,7.8748,7.90624,7.93217,7.97376,7.98367,8.03159,8.08272,8.09911,8.16111,8.20052,8.26245,8.31056,8.3587,8.41679,inf,inf,inf,inf,inf,inf,inf,inf,inf,inf,inf,2.52542,2.45424,2.39591,2.35117,2.29415,2.24799,2.20261,2.14962,2.11785,2.07936,2.04466,1.98895,1.95634,1.98308,2.03051,2.06178,2.11318,2.16625,2.17787,2.11542,2.11707,2.07103,2.06688,2.02641,2.00083,1.9702,1.95438,1.9485,1.9113,1.91813,1.88611,1.8902,1.86099,1.83397,1.82362,1.81828,1.80342,1.80141,1.78151,1.76914,1.7805,1.7676,1.75426,1.73793,1.44882,1.45051,1.45411,1.44413,1.43865,1.4457,1.43636,1.43291,1.41873,1.42599,1.43537,1.4266,1.42902,1.40558,1.4207,1.43642,1.44295,1.42756,1.44322
1.42913,1.43851,1.43783,1.42704,1.42309,1.43109,1.43761,1.43693,1.44886,1.45963,1.42562,1.46554,1.46443,1.45216,1.48096,1.47324,1.48733,1.48874,1.49975,1.51566,1.52678,1.54211,1.54871,1.55583,1.57236,1.58672,1.57709,1.6008,1.62649,1.64879,3.67615,3.69865,3.75844,3.78079,3.67918,3.59515,3.51399,3.41228,3.35793,3.2785,3.20821,3.14091,3.08752,3.02206,2.97706,2.91398,2.85517,2.80685,2.51826,2.45779,2.4315,2.39694,2.34965,2.40887,2.47275,2.54479,2.51667,2.5177,2.48308,2.44729,2.43207,2.39819,2.39141,2.34884,2.33879,2.32375,2.29974,2.28386,2.25077,2.26735,2.23465,2.22653,2.20252,2.18831,2.19332,2.19704,2.15462,2.18134,2.16412,2.14541,2.13664,2.12545,2.13558,2.13034,2.12245,2.11101,2.11929,2.11863,2.11574,2.11511,2.11103,2.10293,2.11332,2.10545,2.12214,2.12566,2.10688,2.1265,2.13354,2.14643,2.15098,2.17872,2.18352,2.19761,2.19962,2.19249,2.19454,inf,inf,inf,inf,inf,inf,inf,inf,inf,inf,inf,inf,inf,inf,inf,inf,inf,inf,inf,inf,inf,inf,inf,inf,inf,inf,inf,inf,inf,inf,inf,inf,inf,inf,inf,inf,inf,inf,inf,inf,inf,inf,inf,inf,inf,inf,inf,inf,inf,inf,inf,inf,inf,inf,inf,inf,inf,inf,inf,inf,inf,inf,inf,inf,inf,inf,inf,inf,inf,inf,inf,inf,inf,inf,inf,inf,inf,inf,inf,inf,inf,inf,inf,inf,inf,inf,inf,inf,inf,inf,inf,inf,inf,inf,inf,inf,inf,inf,inf,inf,inf,inf,inf,inf,inf,inf,inf,inf,inf,inf,inf,inf,inf,inf,inf,inf,inf,inf,inf,inf,inf,inf,inf,inf,inf,inf,inf,inf,inf,inf,inf,inf,inf,inf,inf,inf,inf,inf,inf,inf,inf,inf,inf,inf,inf,inf,inf,inf,inf,inf,inf,inf,inf,inf,inf,inf,inf,7.80477,7.8145,7.79357,7.78971,7.78632,7.77931,7.78678,7.79407,7.78724,7.80282,7.80662,7.83666,7.84145,7.86878,7.90878,7.91517,7.95759,7.9768,8.00893,8.04198,8.06663,8.10118,8.15732,8.20892,8.23713,8.29553,8.35211,8.41945,inf,inf,inf,inf,inf,inf,inf,inf,inf,inf,inf,2.50867,2.45797,2.38923,2.33657,2.30183,2.24904,2.1964,2.15225,2.11279,2.0937,2.05428,1.99996,1.96454,1.97859,2.0213,2.06361,2.09765,2.15486,2.16923,2.13154,2.11631,2.05558,2.05897,2.0149,2.00438,1.97907,1.96307,1.91713,1.92863,1.92125,1.90154,1.88176,1.85817,1.85169,1.81959,1.83027,1.82114,1.82033,1.80099,1.77417,1.7915,1.74929,1.74788,1.74912,1.45271,1.44787,1.43274,1.46114,1.45005,1.43031,1.41768,1.42602,1.43308,1.41306,1.4172,1.42061,1.42133
1.41537,1.44028,1.42622,1.43364,1.4299,1.43343,1.43582,1.43524,1.44128,1.46117,1.44036,1.46055,1.44924,1.46463,1.48553,1.48162,1.47593,1.49408,1.49847,1.49712,1.50813,1.51422,1.52432,1.54499,1.56467,1.569,1.59117,1.60567,1.60345,1.63734,1.65837,1.65931,1.67077,3.73709,3.7974,3.77883,3.67073,3.57638,3.50959,3.45068,3.34909,3.31346,3.22106,3.15579,3.10335,3.06359,2.99802,2.95908,2.91122,2.85043,2.56288,2.51898,2.47415,2.46224,2.41648,2.47838,2.54156,2.60165,2.58478,2.56658,2.52688,2.50058,2.49442,2.45458,2.44782,2.41604,2.3966,2.36688,2.34843,2.33491,2.32616,2.30113,2.29771,2.28771,2.26182,2.26154,2.24989,2.23686,2.23255,2.22558,2.20518,2.20678,2.20497,2.19798,2.20187,2.18623,2.18982,2.19525,2.17999,2.18088,2.16051,2.19593,2.16374,2.18591,2.19534,2.18978,2.17623,2.19936,2.20028,2.20455,2.21509,2.21059,2.24539,2.24479,2.23881,2.24597,2.25771,2.28503,inf,inf,inf,inf,inf,inf,inf,inf,inf,inf,inf,inf,inf,inf,inf,inf,inf,inf,inf,inf,inf,inf,inf,inf,inf,inf,inf,inf,inf,inf,inf,inf,inf,inf,inf,inf,inf,inf,inf,inf,inf,inf,inf,inf,inf,inf,inf,inf,inf,inf,inf,inf,inf,inf,inf,inf,inf,inf,inf,inf,inf,inf,inf,inf,inf,inf,inf,inf,inf,inf,inf,inf,inf,inf,inf,inf,inf,inf,inf,inf,inf,inf,inf,inf,inf,inf,inf,inf,inf,inf,inf,inf,inf,inf,inf,inf,inf,inf,inf,inf,inf,inf,inf,inf,inf,inf,inf,inf,inf,inf,inf,inf,inf,inf,inf,inf,inf,inf,inf,inf,inf,inf,inf,inf,inf,inf,inf,inf,inf,inf,inf,inf,inf,inf,inf,inf,inf,inf,inf,inf,inf,inf,inf,inf,inf,inf,inf,inf,inf,inf,inf,inf,inf,inf,inf,inf,inf,7.74142,7.74216,7.71698,7.72838,7.74818,7.72505,7.72576,7.72757,7.73301,7.73441,7.74647,7.75924,7.79532,7.81022,7.82497,7.87356,7.87714,7.90684,7.93733,7.97297,7.9872,8.05151,8.09424,8.13764,8.189,8.24185,8.29664,8.35801,inf,inf,inf,inf,inf,inf,inf,inf,inf,inf,inf,inf,2.45915,2.39596,2.3356,2.28388,2.24085,2.21326,2.15655,2.11481,2.07296,2.0507,2.01329,1.97563,1.93979,1.93227,1.96336,2.01246,2.05679,2.10344,2.13353,2.0944,2.0827,2.04895,2.03914,1.99517,1.96898,1.9735,1.94865,1.91754,1.92079,1.89875,1.87893,1.87441,1.8528,1.82862,1.84111,1.8066,1.80727,1.77439,1.77969,1.76696,1.75395,1.74737,1.75761,1.73944,1.72867,1.73713,1.46178,1.43536,1.44234,1.45085,1.42577,1.44117,1.41676,1.42419,1.43791
1.42514,1.44456,1.43653,1.42524,1.42953,1.4212,1.42342,1.4476,1.44601,1.45249,1.44849,1.43071,1.45299,1.46699,1.46632,1.47385,1.49912,1.48427,1.48391,1.5063,1.52642,1.49958,1.54291,1.53457,1.54932,1.58111,1.58437,1.59229,1.61304,1.60923,1.6282,1.63442,1.65694,1.66622,1.69804,1.71663,3.85142,3.79153,3.69566,3.6379,3.52165,3.44262,3.38992,3.30825,3.2414,3.19242,3.12788,3.08963,3.03976,2.99548,2.94804,2.63846,2.60964,2.57762,2.52645,2.5007,2.49255,2.55809,2.6284,2.65636,2.61474,2.59309,2.57162,2.55911,2.51612,2.48867,2.51451,2.4536,2.43262,2.40982,2.41179,2.39434,2.38785,2.36833,2.36135,2.3663,2.3294,2.32098,2.31774,2.30502,2.30937,2.29034,2.29415,2.27305,2.25454,2.26852,2.26871,2.26341,2.259,2.25524,2.26466,2.24772,2.26857,2.2501,2.25497,2.25798,2.25661,2.28299,2.26145,2.27879,2.29306,2.29798,2.30553,2.31538,2.31383,2.3387,2.33327,2.32039,inf,inf,inf,inf,inf,inf,inf,inf,inf,inf,inf,inf,inf,inf,inf,inf,inf,inf,inf,inf,inf,inf,inf,inf,inf,inf,inf,inf,inf,inf,inf,inf,inf,inf,inf,inf,inf,inf,inf,inf,inf,inf,inf,inf,inf,inf,inf,inf,inf,inf,inf,inf,inf,inf,inf,inf,inf,inf,inf,inf,inf,inf,inf,inf,inf,inf,inf,inf,inf,inf,inf,inf,inf,inf,inf,inf,inf,inf,inf,inf,inf,inf,inf,inf,inf,inf,inf,inf,inf,inf,inf,inf,inf,inf,inf,inf,inf,inf,inf,inf,inf,inf,inf,inf,inf,inf,inf,inf,inf,inf,inf,inf,inf,inf,inf,inf,inf,inf,inf,inf,inf,inf,inf,inf,inf,inf,inf,inf,inf,inf,inf,inf,inf,inf,inf,inf,inf,inf,inf,inf,inf,inf,inf,inf,inf,inf,inf,inf,inf,inf,inf,inf,inf,inf,inf,inf,inf,inf,7.67869,7.67398,7.65279,7.65394,7.64381,7.6459,7.66917,7.65405,7.66162,7.67148,7.68,7.69047,7.71495,7.73283,7.75579,7.79053,7.81359,7.82605,7.874,7.90159,7.95674,7.97684,8.04387,8.07807,8.13336,8.19389,8.22517,8.29529,inf,inf,inf,inf,inf,inf,inf,inf,inf,inf,inf,inf,2.44192,2.3889,2.31827,2.27082,2.22162,2.18661,2.13802,2.10217,2.07825,2.03357,1.9958,1.91784,1.93547,1.89255,1.87069,1.91305,1.94934,1.98207,2.04294,2.11209,2.07165,2.03601,2.00185,1.99348,1.98273,1.96077,1.92884,1.9229,1.89556,1.88663,1.86918,1.85086,1.81926,1.831,1.82936,1.80447,1.80353,1.7894,1.77412,1.78132,1.76158,1.74626,1.73003,1.75512,1.73894,1.7219,1.72236,1.71506,1.41876,1.42963,1.43433,1.44087,1.4298,1.44677
1.34855,1.36506,1.37279,1.37548,1.3455,1.34184,1.38131,1.36791,1.3656,1.36651,1.37947,1.37685,1.37869,1.36778,1.39188,1.40935,1.41778,1.42686,1.40663,1.40894,1.449,1.45111,1.45192,1.47084,1.47402,1.47763,1.49601,3.41404,3.42888,3.45583,3.49155,3.55811,3.56992,3.59323,3.51763,3.43878,3.36086,3.26244,3.1784,3.12151,3.05634,2.97502,2.89785,2.85483,2.79057,2.72772,2.69231,2.6322,2.31224,2.25968,2.2491,2.21876,2.17315,2.1637,2.18268,2.26495,2.32266,2.31645,2.27656,2.26275,2.2209,2.2331,2.19526,2.16738,2.16253,2.13237,2.10629,2.10417,2.08096,2.05625,2.04715,2.03598,2.02558,2.01705,1.99467,1.98535,1.9763,1.96723,1.97285,1.94585,1.93274,1.93653,1.92912,1.9308,1.89577,1.90445,1.89987,1.88452,1.90958,1.90615,1.8857,1.90159,1.8834,1.89244,1.89795,1.89229,1.9086,1.90855,1.9001,1.92975,1.90076,1.93602,1.93221,1.92301,1.93876,1.95426,1.94718,1.96343,1.96986,1.96974,1.99862,2.02862,2.01824,2.02468,inf,inf,inf,inf,inf,inf,inf,inf,inf,inf,inf,inf,inf,inf,inf,inf,inf,inf,inf,inf,inf,inf,inf,inf,inf,inf,inf,inf,inf,inf,inf,inf,inf,inf,inf,inf,inf,inf,inf,inf,inf,inf,inf,inf,inf,inf,inf,inf,inf,inf,inf,inf,inf,inf,inf,inf,inf,inf,inf,inf,inf,inf,inf,inf,inf,inf,inf,inf,inf,inf,inf,inf,inf,inf,inf,inf,inf,inf,inf,inf,inf,inf,inf,inf,inf,inf,inf,inf,inf,inf,inf,inf,inf,inf,inf,inf,inf,inf,inf,inf,inf,inf,inf,inf,inf,inf,inf,inf,inf,inf,inf,inf,inf,inf,inf,inf,inf,inf,inf,inf,inf,inf,inf,inf,inf,inf,inf,inf,inf,inf,inf,inf,inf,inf,inf,inf,inf,inf,inf,inf,inf,inf,inf,inf,inf,inf,inf,inf,inf,inf,inf,inf,inf,8.02394,8.01092,8.00045,8.01893,7.9915,8.00049,8.0019,8.00458,8.02134,8.03198,8.03982,8.06815,8.08155,8.09661,8.12024,8.15642,8.17227,8.20362,8.24731,8.28527,8.30059,8.36704,8.38934,8.45339,8.50043,8.55077,8.62369,inf,inf,inf,inf,inf,inf,inf,inf,2.68508,2.59699,2.51569,2.44502,2.40203,2.32484,2.27916,2.23594,2.15758,2.11748,2.09456,2.09202,2.12451,2.16686,2.20674,2.23834,2.23934,2.22142,2.17306,2.14883,2.10475,2.10716,2.06366,2.04249,2.00075,1.99661,1.97634,1.94753,1.91556,1.90346,1.89308,1.87785,1.82576,1.81429,1.81253,1.79925,1.78005,1.77297,1.77874,1.43878,1.4492,1.42209,1.41983,1.41045,1.42781,1.4131,1.38902,1.39321,1.37857,1.40474,1.37698,1.3782,1.38219,1.36424,1.37434,1.36525,1.37387,1.35717
1.42049,1.39262,1.3983,1.41074,1.41918,1.41146,1.41718,1.40204,1.43852,1.42984,1.43109,1.45794,1.44954,1.45576,1.44876,1.44245,1.46908,1.46944,1.50843,1.4844,1.51812,1.50659,1.53164,1.53723,3.43813,3.46605,3.49242,3.51933,3.54255,3.59956,3.6234,3.63338,3.51753,3.42877,3.34352,3.24813,3.17746,3.10531,3.03136,2.95606,2.90834,2.86272,2.77787,2.73854,2.69129,2.35499,2.32927,2.27127,2.23444,2.19927,2.18856,2.23339,2.29465,2.36367,2.31828,2.30876,2.27396,2.26107,2.22675,2.18991,2.18242,2.17015,2.15097,2.13279,2.10321,2.09322,2.06979,2.04596,2.04145,2.03562,2.00068,2.0082,1.98073,1.97724,1.96068,1.95339,1.95989,1.92889,1.91827,1.93748,1.94018,1.92335,1.91973,1.91679,1.9133,1.90188,1.89506,1.91936,1.90568,1.89229,1.88892,1.89582,1.89041,1.89366,1.88926,1.90017,1.90561,1.90415,1.91016,1.93063,1.92428,1.92717,1.92785,1.96172,1.97056,1.96503,1.9595,1.96671,1.9899,2.02196,inf,inf,inf,inf,inf,inf,inf,inf,inf,inf,inf,inf,inf,inf,inf,inf,inf,inf,inf,inf,inf,inf,inf,inf,inf,inf,inf,inf,inf,inf,inf,inf,inf,inf,inf,inf,inf,inf,inf,inf,inf,inf,inf,inf,inf,inf,inf,inf,inf,inf,inf,inf,inf,inf,inf,inf,inf,inf,inf,inf,inf,inf,inf,inf,inf,inf,inf,inf,inf,inf,inf,inf,inf,inf,inf,inf,inf,inf,inf,inf,inf,inf,inf,inf,inf,inf,inf,inf,inf,inf,inf,inf,inf,inf,inf,inf,inf,inf,inf,inf,inf,inf,inf,inf,inf,inf,inf,inf,inf,inf,inf,inf,inf,inf,inf,inf,inf,inf,inf,inf,inf,inf,inf,inf,inf,inf,inf,inf,inf,inf,inf,inf,inf,inf,inf,inf,inf,inf,inf,inf,inf,inf,inf,inf,inf,inf,inf,inf,inf,inf,inf,inf,inf,inf,inf,8.03914,8.01668,7.98761,8.00692,8.02108,8.00949,8.01155,8.00749,8.02774,8.03609,8.05391,8.05885,8.07325,8.09841,8.11145,8.15258,8.16229,8.19928,8.24005,8.28068,8.31131,8.35092,8.39716,8.45834,8.49856,8.54716,8.63333,inf,inf,inf,inf,inf,inf,inf,inf,inf,2.6784,2.61497,2.54973,2.45661,2.42462,2.37404,2.30304,2.25536,2.21291,2.18138,2.12077,2.12232,2.1883,2.2183,2.25113,2.25378,2.27351,2.24981,2.20158,2.19516,2.14863,2.12961,2.09518,2.07407,2.05228,2.02317,1.98788,1.99029,1.9663,1.92096,1.92758,1.89594,1.8965,1.86495,1.84453,1.83917,1.82796,1.83106,1.81332,1.48649,1.47653,1.47724,1.44556,1.47459,1.44464,1.42977,1.44907,1.41262,1.44958,1.44213,1.42136,1.42253,1.41464,1.41608,1.41567,1.43191,1.40156,1.40822,1.4326
