0,1,2,3,4,5,6,7,8,9,10,11,12,13,14,15,16,17,18,19,20,21,22,23,24,25,26,27,28,29,30,31,32,33,34,35,36,37,38,39,40,41,42,43,44,45,46,47,48,49,50,51,52,53,54,55,56,57,58,59,60,61,62,63,64,65,66,67,68,69,70,71,72,73,74,75,76,77,78,79,80,81,82,83,84,85,86,87,88,89,90,91,92,93,94,95,96,97,98,99,100,101,102,103,104,105,106,107,108,109,110,111,112,113,114,115,116,117,118,119,120,121,122,123,124,125,126,127,128,129,130,131,132,133,134,135,136,137,138,139,140,141,142,143,144,145,146,147,148,149,150,151,152,153,154,155,156,157,158,159,160,161,162,163,164,165,166,167,168,169,170,171,172,173,174,175,176,177,178,179,180,181,182,183,184,185,186,187,188,189,190,191,192,193,194,195,196,197,198,199,200,201,202,203,204,205,206,207,208,209,210,211,212,213,214,215,216,217,218,219,220,221,222,223,224,225,226,227,228,229,230,231,232,233,234,235,236,237,238,239,240,241,242,243,244,245,246,247,248,249,250,251,252,253,254,255,256,257,258,259,260,261,262,263,264,265,266,267,268,269,270,271,272,273,274,275,276,277,278,279,280,281,282,283,284,285,286,287,288,289,290,291,292,293,294,295,296,297,298,299,300,301,302,303,304,305,306,307,308,309,310,311,312,313,314,315,316,317,318,319,320,321,322,323,324,325,326,327,328,329,330,331,332,333,334,335,336,337,338,339,340,341,342,343,344,345,346,347,348,349,350,351,352,353,354,355,356,357,358,359
1.48036,1.5058,1.49272,1.48171,1.50118,1.49966,1.50264,1.51247,1.48955,1.52504,1.50726,1.52238,1.52218,1.54875,1.52984,1.52488,1.55712,1.55708,1.57008,1.58641,1.60255,1.58349,1.60499,1.60673,1.64742,1.65197,1.97177,1.9858,2.00429,2.00381,2.03122,2.06828,2.08239,2.09806,2.11638,2.15214,2.19657,2.19621,2.234,2.25934,2.28423,2.33727,2.3761,2.39999,2.44314,2.4667,2.42345,2.40341,2.33624,2.32191,2.29805,2.33069,2.38871,2.46441,2.43311,2.40535,2.37422,2.34758,2.32825,2.30908,2.26873,2.26279,2.24134,2.21967,2.19573,2.18729,2.14869,2.15339,2.12729,2.09029,2.09836,2.08362,2.0537,2.04876,2.05807,2.05103,2.01847,2.01567,1.97711,1.99397,1.98622,1.98307,1.96689,1.9615,1.97641,1.95738,1.95636,1.95577,1.96094,1.95503,1.97073,1.95254,1.94569,1.95437,1.94466,1.95512,1.97229,1.97878,1.97244,1.97708,1.98371,2.0093,1.99389,1.98587,2.01836,2.02131,2.0112,2.04551,inf,inf,inf,inf,inf,inf,inf,inf,inf,inf,inf,inf,inf,inf,inf,inf,inf,inf,inf,inf,inf,inf,inf,inf,inf,inf,inf,inf,inf,inf,inf,inf,inf,inf,inf,inf,inf,inf,inf,inf,inf,inf,inf,inf,inf,inf,inf,inf,inf,inf,inf,inf,inf,inf,inf,inf,inf,inf,inf,inf,inf,inf,inf,inf,inf,inf,inf,inf,inf,inf,inf,inf,inf,inf,inf,inf,inf,inf,inf,inf,inf,inf,inf,inf,inf,inf,inf,inf,inf,inf,inf,inf,inf,inf,inf,inf,inf,inf,inf,inf,inf,inf,inf,inf,inf,inf,inf,inf,inf,inf,inf,inf,inf,inf,inf,inf,inf,inf,inf,inf,inf,inf,inf,inf,inf,inf,inf,inf,inf,inf,inf,inf,inf,inf,inf,inf,inf,inf,inf,inf,inf,inf,inf,inf,inf,inf,inf,inf,inf,inf,inf,inf,inf,inf,inf,inf,inf,inf,7.97623,7.95708,7.94837,7.94841,7.94358,7.94986,7.94063,7.97237,7.96127,7.98819,7.98617,7.98693,8.02173,8.04247,8.06098,8.07767,8.12213,8.13957,8.19916,8.19706,8.26353,8.30077,8.34322,8.39582,8.44871,8.50749,8.57441,8.6378,inf,inf,inf,inf,inf,inf,inf,inf,inf,inf,2.68222,2.59879,2.5467,2.48088,2.43099,2.37223,2.33086,2.28424,2.25091,2.20317,2.1341,2.12271,2.15328,2.18828,2.2468,2.30121,2.64847,2.71697,2.77017,2.826,2.91521,2.97567,3.04893,3.11461,3.23093,3.32868,3.40986,3.52866,3.63107,3.64966,3.59327,3.56951,3.5006,3.51352,3.48126,3.46551,3.44227,3.40763,3.3843,3.37924,1.56952,1.54604,1.54364,1.54072,1.52435,1.53103,1.51967,1.50513,1.51922,1.4952,1.52376,1.50724,1.51274,1.50171,1.5204,1.48964
1.49935,1.49929,1.48855,1.49719,1.50883,1.50732,1.50145,1.50866,1.49666,1.50656,1.53729,1.53961,1.5367,1.53152,1.54833,1.55492,1.56791,1.56065,1.58988,1.5955,1.58908,1.60908,1.63778,1.65586,1.95524,1.97787,1.99633,2.00538,2.0131,2.03231,2.05846,2.10228,2.11485,2.13691,2.164,2.18252,2.20896,2.25311,2.30244,2.31151,2.34625,2.3844,2.39954,2.42945,2.45251,2.42365,2.37449,2.33044,2.2875,2.32437,2.37083,2.42891,2.46689,2.43574,2.39199,2.36318,2.3293,2.31814,2.31173,2.26632,2.25204,2.22833,2.20661,2.18708,2.1842,2.14887,2.11806,2.09014,2.09369,2.0884,2.07445,2.05536,2.03893,2.03847,2.05011,2.0121,2.00434,2.02464,1.99284,1.97483,1.96537,1.97134,1.97654,1.98664,1.95249,1.94771,1.9584,1.96639,1.95591,1.94934,1.94621,1.95859,1.96527,1.96117,1.96326,1.96684,1.97071,1.98135,1.97152,1.98211,1.98254,1.99017,2.01656,2.01595,2.01595,2.03258,2.05463,inf,inf,inf,inf,inf,inf,inf,inf,inf,inf,inf,inf,inf,inf,inf,inf,inf,inf,inf,inf,inf,inf,inf,inf,inf,inf,inf,inf,inf,inf,inf,inf,inf,inf,inf,inf,inf,inf,inf,inf,inf,inf,inf,inf,inf,inf,inf,inf,inf,inf,inf,inf,inf,inf,inf,inf,inf,inf,inf,inf,inf,inf,inf,inf,inf,inf,inf,inf,inf,inf,inf,inf,inf,inf,inf,inf,inf,inf,inf,inf,inf,inf,inf,inf,inf,inf,inf,inf,inf,inf,inf,inf,inf,inf,inf,inf,inf,inf,inf,inf,inf,inf,inf,inf,inf,inf,inf,inf,inf,inf,inf,inf,inf,inf,inf,inf,inf,inf,inf,inf,inf,inf,inf,inf,inf,inf,inf,inf,inf,inf,inf,inf,inf,inf,inf,inf,inf,inf,inf,inf,inf,inf,inf,inf,inf,inf,inf,inf,inf,inf,inf,inf,inf,inf,inf,inf,inf,inf,7.9513,7.96881,7.94281,7.9279,7.94366,7.94237,7.97113,7.95488,7.95262,7.98638,7.98558,8.00048,8.01389,8.03305,8.0555,8.10845,8.12962,8.15684,8.20054,8.23498,8.2754,8.32098,8.38576,8.4262,8.46919,8.52052,8.58976,inf,inf,inf,inf,inf,inf,inf,inf,inf,inf,2.72499,2.64054,2.59228,2.53015,2.44829,2.41786,2.36541,2.30852,2.26432,2.2169,2.17932,2.15359,2.15184,2.17762,2.21732,2.25401,2.30632,2.65605,2.74065,2.79609,2.88231,2.94047,3.0036,3.08152,3.16782,3.26543,3.35777,3.44797,3.56122,3.6541,3.61779,3.58635,3.53619,3.51763,3.50999,3.45296,3.45346,3.42356,3.41749,3.39332,1.57694,1.5584,1.55953,1.55576,1.52902,1.51691,1.51935,1.5216,1.52265,1.51454,1.50188,1.50839,1.49879,1.50347,1.49653,1.4983,1.50773,1.50282
1.49703,1.52392,1.5041,1.51023,1.51669,1.52009,1.52311,1.53688,1.52282,1.54335,1.56248,1.5526,1.57151,1.55832,1.56924,1.58769,1.60541,1.61092,1.63846,1.64413,1.9631,1.96215,2.00287,2.01006,2.01506,2.03856,2.07226,2.0879,2.11303,2.14126,2.16096,2.1955,2.22198,2.23904,2.27679,2.29472,2.34682,2.3879,2.42291,2.47161,2.45596,2.4069,2.36636,2.34017,2.30606,2.30304,2.37615,2.40837,2.44495,2.42632,2.39756,2.38454,2.33953,2.31786,2.27865,2.25485,2.24515,2.23402,2.20421,2.18222,2.18091,2.14938,2.12697,2.10666,2.08918,2.09703,2.06775,2.04791,2.04004,2.02419,2.02458,2.01565,2.02463,1.99844,1.99088,1.98374,1.99705,1.97917,1.98075,1.96384,1.96162,1.95312,1.97087,1.96308,1.96982,1.95804,1.97034,1.96348,1.95118,1.96159,1.96194,1.96103,1.96846,1.97228,1.99956,1.97881,2.00314,1.99821,2.00127,2.02641,2.03196,2.03182,2.04304,inf,inf,inf,inf,inf,inf,inf,inf,inf,inf,inf,inf,inf,inf,inf,inf,inf,inf,inf,inf,inf,inf,inf,inf,inf,inf,inf,inf,inf,inf,inf,inf,inf,inf,inf,inf,inf,inf,inf,inf,inf,inf,inf,inf,inf,inf,inf,inf,inf,inf,inf,inf,inf,inf,inf,inf,inf,inf,inf,inf,inf,inf,inf,inf,inf,inf,inf,inf,inf,inf,inf,inf,inf,inf,inf,inf,inf,inf,inf,inf,inf,inf,inf,inf,inf,inf,inf,inf,inf,inf,inf,inf,inf,inf,inf,inf,inf,inf,inf,inf,inf,inf,inf,inf,inf,inf,inf,inf,inf,inf,inf,inf,inf,inf,inf,inf,inf,inf,inf,inf,inf,inf,inf,inf,inf,inf,inf,inf,inf,inf,inf,inf,inf,inf,inf,inf,inf,inf,inf,inf,inf,inf,inf,inf,inf,inf,inf,inf,inf,inf,inf,inf,inf,inf,inf,inf,inf,inf,7.95154,7.93579,7.95597,7.93346,7.94985,7.93385,7.96635,7.94887,7.99043,7.98459,7.98499,8.00003,8.02323,8.06424,8.08378,8.11848,8.13048,8.16037,8.19125,8.23051,8.28358,8.3266,8.37608,8.41441,8.47317,8.53691,8.58594,inf,inf,inf,inf,inf,inf,inf,inf,inf,inf,2.71231,2.64796,2.59933,2.52867,2.46025,2.40911,2.35914,2.32583,2.25648,2.21126,2.187,2.14016,2.15185,2.18884,2.22854,2.25388,2.31534,2.6794,2.75328,2.78698,2.86542,2.92518,3.00217,3.08698,3.17615,3.26815,3.3501,3.45732,3.5691,3.6415,3.61674,3.58992,3.54069,3.51595,3.48214,3.44514,3.438,3.43781,3.42051,3.39122,1.56456,1.54986,1.52946,1.52217,1.53157,1.53033,1.53049,1.5194,1.49678,1.51688,1.51136,1.49116,1.50302,1.50271,1.5168,1.50332,1.51422,1.4844,1.50508,1.49876,1.50842,1.50314
1.4742,1.46913,1.46732,1.48093,1.48682,1.49375,1.48304,1.50056,1.49595,1.49085,1.51878,1.51165,1.53503,1.54023,1.5472,1.55415,1.54857,1.57468,1.60576,1.61967,1.61472,1.94872,1.953,1.95876,1.99333,1.993,2.02534,2.05578,2.07901,2.08799,2.10847,2.15078,2.18026,2.19132,2.23019,2.25772,2.29769,2.3269,2.35998,2.42017,2.45346,2.40334,2.36832,2.33408,2.29671,2.25036,2.32278,2.35797,2.39902,2.43498,2.39566,2.36686,2.32865,2.31096,2.29537,2.27106,2.24227,2.20868,2.20677,2.18817,2.1549,2.12047,2.12935,2.12324,2.09018,2.08466,2.04848,2.07491,2.05824,2.02813,2.03919,2.0066,2.02545,1.99483,1.9875,1.99073,1.97877,1.98563,1.95475,1.95972,1.95808,1.9542,1.95948,1.94997,1.9519,1.94598,1.94831,1.94627,1.92989,1.96217,1.95335,1.94304,1.9725,1.97038,1.97668,1.9815,1.97643,1.98358,2.00307,2.01954,2.02245,2.02789,2.04682,2.04148,inf,inf,inf,inf,inf,inf,inf,inf,inf,inf,inf,inf,inf,inf,inf,inf,inf,inf,inf,inf,inf,inf,inf,inf,inf,inf,inf,inf,inf,inf,inf,inf,inf,inf,inf,inf,inf,inf,inf,inf,inf,inf,inf,inf,inf,inf,inf,inf,inf,inf,inf,inf,inf,inf,inf,inf,inf,inf,inf,inf,inf,inf,inf,inf,inf,inf,inf,inf,inf,inf,inf,inf,inf,inf,inf,inf,inf,inf,inf,inf,inf,inf,inf,inf,inf,inf,inf,inf,inf,inf,inf,inf,inf,inf,inf,inf,inf,inf,inf,inf,inf,inf,inf,inf,inf,inf,inf,inf,inf,inf,inf,inf,inf,inf,inf,inf,inf,inf,inf,inf,inf,inf,inf,inf,inf,inf,inf,inf,inf,inf,inf,inf,inf,inf,inf,inf,inf,inf,inf,inf,inf,inf,inf,inf,inf,inf,inf,inf,inf,inf,inf,inf,inf,inf,inf,inf,inf,7.97254,7.9681,7.93994,7.94905,7.94013,7.9596,7.97047,7.96054,7.97459,7.98691,7.99252,8.01374,8.0368,8.04648,8.07164,8.11471,8.13589,8.16439,8.18909,8.23391,8.27658,8.31937,8.37087,8.42034,8.46669,8.55142,8.59919,inf,inf,inf,inf,inf,inf,inf,inf,inf,inf,2.67233,2.59041,2.53229,2.48108,2.41892,2.36315,2.3221,2.25041,2.22972,2.17981,2.13769,2.11842,2.13621,2.18471,2.22383,2.26772,2.6221,2.68298,2.73874,2.80129,2.85665,2.93864,3.01592,3.09032,3.1534,3.24864,3.36688,3.46359,3.55279,3.61243,3.55812,3.55491,3.5117,3.50197,3.46235,3.44645,3.40061,3.41307,3.36533,3.35905,1.53217,1.52164,1.50773,1.51372,1.51989,1.50385,1.48779,1.4871,1.48309,1.48552,1.48037,1.46108,1.48119,1.45976,1.46377,1.45157,1.45682,1.45167,1.46565,1.4645,1.46488,1.47649
1.39601,1.40767,1.41688,1.4086,1.40093,1.38325,1.41246,1.41528,1.40774,1.40778,1.40067,1.41347,1.41722,1.42523,1.41153,1.4436,1.43534,1.44394,1.74185,1.74829,1.75981,1.77042,1.80183,1.80724,1.8265,1.82978,1.82289,1.85196,1.86368,1.88085,1.89554,1.9303,1.93564,1.97881,1.99697,2.01707,2.05409,2.05446,2.06708,2.1113,2.14194,2.17001,2.20545,2.2016,2.11297,2.08925,2.07118,2.01142,2.01836,2.06666,2.10526,2.14724,2.16315,2.13714,2.10754,2.08365,2.05501,2.04099,1.99028,1.97052,1.96295,1.93687,1.93507,1.89641,1.87562,1.87394,1.84934,1.81916,1.80732,1.79007,1.80296,1.77804,1.77949,1.76755,1.76885,1.73012,1.72463,1.74353,1.70977,1.70747,1.68971,1.69148,1.68864,1.71084,1.67761,1.68139,1.64845,1.66609,1.68063,1.66991,1.66152,1.67843,1.6711,1.64259,1.68058,1.66524,1.66103,1.68383,1.67633,1.66723,1.68245,1.66383,1.70346,1.67922,1.69547,1.72273,1.72453,1.71227,1.74028,1.72806,1.74682,1.76246,1.79395,1.79852,1.79309,inf,inf,inf,inf,inf,inf,inf,inf,inf,inf,inf,inf,inf,inf,inf,inf,inf,inf,inf,inf,inf,inf,inf,inf,inf,inf,inf,inf,inf,inf,inf,inf,inf,inf,inf,inf,inf,inf,inf,inf,inf,inf,inf,inf,inf,inf,inf,inf,inf,inf,inf,inf,inf,inf,inf,inf,inf,inf,inf,inf,inf,inf,inf,inf,inf,inf,inf,inf,inf,inf,inf,inf,inf,inf,inf,inf,inf,inf,inf,inf,inf,inf,inf,inf,inf,inf,inf,inf,inf,inf,inf,inf,inf,inf,inf,inf,inf,inf,inf,inf,inf,inf,inf,inf,inf,inf,inf,inf,inf,inf,inf,inf,inf,inf,inf,inf,inf,inf,inf,inf,inf,inf,inf,inf,inf,inf,inf,inf,inf,inf,inf,inf,inf,inf,inf,inf,inf,inf,inf,inf,inf,inf,inf,inf,inf,inf,inf,inf,inf,inf,inf,inf,8.26539,8.23907,8.25222,8.25029,8.21843,8.2257,8.24097,8.25412,8.24879,8.26465,8.2701,8.29269,8.31004,8.33931,8.34016,8.39949,8.42898,8.45978,8.49725,8.51915,8.5767,8.61533,8.65835,8.69766,8.75265,8.81389,inf,inf,inf,inf,inf,inf,inf,2.88654,2.82096,2.73006,2.64888,2.57652,2.52618,2.42979,2.37693,2.31984,2.28738,2.32575,2.33378,2.38568,2.41268,2.46598,2.78417,2.83239,2.88094,2.92982,2.98356,3.03626,3.09191,3.17838,3.23422,3.31979,3.39589,3.48069,3.57317,3.65091,3.69964,3.63203,3.61584,3.58528,1.5975,1.57431,1.553,1.5341,1.52308,1.53416,1.52143,1.50557,1.50795,1.4711,1.46991,1.45895,1.44083,1.45548,1.4432,1.44547,1.43509,1.41858,1.4339,1.42398,1.41725,1.41122,1.39724,1.42464,1.42257,1.40239,1.41121
1.40741,1.41304,1.39087,1.39862,1.39946,1.39115,1.4318,1.41444,1.39591,1.42124,1.41684,1.41969,1.41108,1.4227,1.42698,1.43522,1.45476,1.44178,1.74901,1.76,1.76771,1.78314,1.78885,1.80904,1.80559,1.82782,1.83552,1.85192,1.87309,1.87481,1.91086,1.93131,1.9518,1.99014,1.98906,2.02543,2.03473,2.05819,2.08852,2.11739,2.13421,2.16984,2.19863,2.18218,2.13869,2.06876,2.05062,2.0274,2.02867,2.07339,2.10238,2.14073,2.14625,2.14028,2.10486,2.08497,2.05374,2.01064,2.01242,1.97395,1.95891,1.9389,1.91313,1.89903,1.89162,1.86405,1.83382,1.8178,1.82181,1.79637,1.78044,1.78941,1.76419,1.75993,1.73369,1.74158,1.73313,1.71966,1.73082,1.72065,1.71271,1.69858,1.68943,1.67136,1.6635,1.69343,1.67229,1.66986,1.66332,1.66505,1.66936,1.65135,1.67443,1.6704,1.68562,1.68525,1.67521,1.69387,1.67215,1.67518,1.66628,1.68762,1.69628,1.68791,1.70284,1.71669,1.72211,1.72207,1.73488,1.76122,1.74895,1.76133,1.78315,1.78417,1.80901,inf,inf,inf,inf,inf,inf,inf,inf,inf,inf,inf,inf,inf,inf,inf,inf,inf,inf,inf,inf,inf,inf,inf,inf,inf,inf,inf,inf,inf,inf,inf,inf,inf,inf,inf,inf,inf,inf,inf,inf,inf,inf,inf,inf,inf,inf,inf,inf,inf,inf,inf,inf,inf,inf,inf,inf,inf,inf,inf,inf,inf,inf,inf,inf,inf,inf,inf,inf,inf,inf,inf,inf,inf,inf,inf,inf,inf,inf,inf,inf,inf,inf,inf,inf,inf,inf,inf,inf,inf,inf,inf,inf,inf,inf,inf,inf,inf,inf,inf,inf,inf,inf,inf,inf,inf,inf,inf,inf,inf,inf,inf,inf,inf,inf,inf,inf,inf,inf,inf,inf,inf,inf,inf,inf,inf,inf,inf,inf,inf,inf,inf,inf,inf,inf,inf,inf,inf,inf,inf,inf,inf,inf,inf,inf,inf,inf,inf,inf,inf,inf,inf,inf,8.24943,8.24692,8.2427,8.25458,8.23123,8.22322,8.24117,8.24897,8.25988,8.25498,8.27167,8.30642,8.30627,8.33398,8.35624,8.38751,8.41034,8.4615,8.48405,8.52014,8.55497,8.60553,8.64375,8.69282,8.74792,8.80791,inf,inf,inf,inf,inf,inf,inf,2.88817,2.81768,2.72509,2.63904,2.56287,2.49493,2.45328,2.37769,2.31944,2.2685,2.3225,2.34505,2.37295,2.42567,2.43535,2.79376,2.81369,2.87153,2.921,2.99305,3.04691,3.12383,3.15843,3.2393,3.30728,3.39195,3.45854,3.55972,3.668,3.68597,3.64226,3.61436,3.57143,1.5856,1.57722,1.56129,1.55081,1.51458,1.52107,1.5034,1.49568,1.49299,1.48554,1.48988,1.47138,1.45595,1.4594,1.435,1.45211,1.42777,1.4179,1.42829,1.43632,1.4105,1.39657,1.40439,1.39347,1.41884,1.38144,1.42221
1.4075,1.41377,1.41464,1.41819,1.41241,1.41738,1.41756,1.43364,1.43786,1.4423,1.43818,1.44221,1.7216,1.75738,1.76864,1.77203,1.78355,1.79982,1.80701,1.83005,1.84842,1.86401,1.86359,1.88851,1.91654,1.9485,1.94468,1.95544,1.97907,1.99695,2.04821,2.05377,2.08505,2.10588,2.14202,2.18704,2.19461,2.19577,2.15703,2.09368,2.05341,2.01971,2.01256,2.06292,2.11413,2.14616,2.15996,2.1447,2.08807,2.09966,2.05574,2.0336,2.00955,1.97956,1.95659,1.94179,1.91263,1.90165,1.88012,1.87872,1.84157,1.83161,1.80879,1.81977,1.79966,1.77738,1.76254,1.76213,1.73925,1.75073,1.71116,1.7196,1.71625,1.70391,1.70375,1.68406,1.69212,1.69374,1.68938,1.68749,1.67022,1.66809,1.66546,1.66753,1.68557,1.66972,1.65908,1.68204,1.65194,1.65372,1.66964,1.6736,1.6837,1.66635,1.68178,1.70472,1.69008,1.70425,1.70963,1.72871,1.70996,1.7154,1.73067,1.73338,1.76923,1.77101,1.79555,1.79351,1.81596,inf,inf,inf,inf,inf,inf,inf,inf,inf,inf,inf,inf,inf,inf,inf,inf,inf,inf,inf,inf,inf,inf,inf,inf,inf,inf,inf,inf,inf,inf,inf,inf,inf,inf,inf,inf,inf,inf,inf,inf,inf,inf,inf,inf,inf,inf,inf,inf,inf,inf,inf,inf,inf,inf,inf,inf,inf,inf,inf,inf,inf,inf,inf,inf,inf,inf,inf,inf,inf,inf,inf,inf,inf,inf,inf,inf,inf,inf,inf,inf,inf,inf,inf,inf,inf,inf,inf,inf,inf,inf,inf,inf,inf,inf,inf,inf,inf,inf,inf,inf,inf,inf,inf,inf,inf,inf,inf,inf,inf,inf,inf,inf,inf,inf,inf,inf,inf,inf,inf,inf,inf,inf,inf,inf,inf,inf,inf,inf,inf,inf,inf,inf,inf,inf,inf,inf,inf,inf,inf,inf,inf,inf,inf,inf,inf,inf,inf,inf,inf,inf,inf,inf,8.2541,8.26152,8.23674,8.24459,8.23169,8.23258,8.23216,8.23206,8.25435,8.25604,8.27013,8.27465,8.31445,8.32234,8.37033,8.39128,8.40982,8.43463,8.48495,8.52351,8.56361,8.61269,8.65494,8.68465,8.76132,8.81154,8.88536,inf,inf,inf,inf,inf,inf,2.9003,2.80318,2.71503,2.65894,2.5828,2.49554,2.4472,2.40153,2.32928,2.28185,2.33759,2.34521,2.36738,2.41152,2.44395,2.76992,2.82954,2.87891,2.9158,2.96156,3.02523,3.07777,3.16233,3.25502,3.31628,3.39765,3.46155,3.5712,3.65386,3.68064,3.65122,3.61642,3.57807,3.53189,1.56857,1.54974,1.54845,1.53942,1.51927,1.5226,1.49586,1.47349,1.48541,1.46582,1.46751,1.46083,1.42691,1.44757,1.42203,1.43594,1.43898,1.44423,1.39904,1.43017,1.42087,1.4004,1.41526,1.41523,1.41472,1.39798,1.39351,1.38589,1.38698,1.39044,1.39526,1.4058
1.42159,1.41758,1.40776,1.43762,1.43017,1.42943,1.43502,1.44839,1.73889,1.75179,1.76555,1.76706,1.78497,1.8037,1.82337,1.832,1.82843,1.84888,1.87212,1.88726,1.88166,1.91682,1.92118,1.95347,1.97081,1.97161,2.01476,2.04464,2.06058,2.09077,2.12129,2.15051,2.18115,2.21136,2.15601,2.13333,2.06944,2.03551,2.02478,2.03039,2.06689,2.11465,2.15847,2.13891,2.13311,2.08899,2.05984,2.02434,2.01702,2.01172,1.96313,1.95526,1.91265,1.91041,1.88913,1.86367,1.85402,1.8285,1.80634,1.81193,1.79799,1.78393,1.77797,1.77529,1.76858,1.72601,1.75518,1.72945,1.71986,1.70733,1.70618,1.69987,1.7111,1.69666,1.68427,1.6812,1.68295,1.66898,1.68561,1.66686,1.65664,1.66845,1.66488,1.67741,1.64883,1.65751,1.68006,1.67244,1.665,1.67005,1.68467,1.68898,1.69334,1.68288,1.69785,1.70619,1.72368,1.72534,1.74587,1.72888,1.76272,1.7641,1.76697,1.78025,1.78614,inf,inf,inf,inf,inf,inf,inf,inf,inf,inf,inf,inf,inf,inf,inf,inf,inf,inf,inf,inf,inf,inf,inf,inf,inf,inf,inf,inf,inf,inf,inf,inf,inf,inf,inf,inf,inf,inf,inf,inf,inf,inf,inf,inf,inf,inf,inf,inf,inf,inf,inf,inf,inf,inf,inf,inf,inf,inf,inf,inf,inf,inf,inf,inf,inf,inf,inf,inf,inf,inf,inf,inf,inf,inf,inf,inf,inf,inf,inf,inf,inf,inf,inf,inf,inf,inf,inf,inf,inf,inf,inf,inf,inf,inf,inf,inf,inf,inf,inf,inf,inf,inf,inf,inf,inf,inf,inf,inf,inf,inf,inf,inf,inf,inf,inf,inf,inf,inf,inf,inf,inf,inf,inf,inf,inf,inf,inf,inf,inf,inf,inf,inf,inf,inf,inf,inf,inf,inf,inf,inf,inf,inf,inf,inf,inf,inf,inf,inf,inf,inf,inf,inf,8.26289,8.25475,8.24343,8.24071,8.24502,8.23021,8.22082,8.26312,8.24217,8.27516,8.26843,8.27036,8.30751,8.32242,8.33429,8.3757,8.40842,8.42566,8.45457,8.49233,8.52132,8.57673,8.63388,8.65127,8.72213,8.77938,8.83347,inf,inf,inf,inf,inf,inf,inf,2.85866,2.78575,2.70366,2.6292,2.55026,2.47823,2.43399,2.37478,2.31643,2.29327,2.31757,2.3629,2.38846,2.42891,2.74604,2.78648,2.83625,2.87589,2.94442,3.00034,3.05866,3.13455,3.2097,3.27688,3.33748,3.42504,3.51986,3.6127,3.70232,3.65975,3.61971,3.60328,3.58274,1.5916,1.57669,1.57609,1.52317,1.52047,1.52879,1.5086,1.50349,1.4993,1.4717,1.46457,1.46367,1.46786,1.45385,1.44121,1.42966,1.44878,1.43849,1.43038,1.40139,1.3933,1.40806,1.41089,1.40386,1.41357,1.38712,1.3919,1.407,1.41795,1.39104,1.40056,1.4248,1.42195,1.3943,1.40066,1.41837
1.39599,1.40994,1.41515,1.40219,1.40788,1.40408,1.40845,1.39709,1.38109,1.39806,1.39888,1.40299,1.41872,1.40173,1.40258,1.39563,1.41377,1.41955,1.39463,1.44302,1.43561,1.43963,1.43895,1.44212,1.4326,1.73478,1.77979,1.77828,1.76505,1.79219,1.79403,1.82914,1.83141,1.8554,1.86149,1.88848,1.88317,1.91496,1.93635,1.93188,1.96969,1.98542,2.00935,2.03366,2.09582,2.09769,2.0992,2.14677,2.18059,2.20158,2.18887,2.1611,2.09224,2.04753,2.03749,2.02814,2.04757,2.10277,2.12353,2.15565,2.15253,2.10069,2.08151,2.06575,2.03764,2.003,1.97602,1.95501,1.94193,1.92683,1.9049,1.87089,1.86157,1.8446,1.83524,1.8341,1.82613,1.78294,1.78479,1.77003,1.77265,1.7439,1.75932,1.73988,1.72864,1.72561,1.71961,1.7086,1.70116,1.70621,1.69768,1.67022,1.6742,1.684,1.68494,1.66488,1.68746,1.67312,1.66175,1.66521,1.66376,1.66457,1.67556,1.69913,1.69736,1.692,1.69146,1.7076,1.67456,1.70004,1.70133,1.70013,1.71913,1.73674,1.73652,1.75175,1.75472,1.75857,1.76668,1.78695,1.79483,1.82132,inf,inf,inf,inf,inf,inf,inf,inf,inf,inf,inf,inf,inf,inf,inf,inf,inf,inf,inf,inf,inf,inf,inf,inf,inf,inf,inf,inf,inf,inf,inf,inf,inf,inf,inf,inf,inf,inf,inf,inf,inf,inf,inf,inf,inf,inf,inf,inf,inf,inf,inf,inf,inf,inf,inf,inf,inf,inf,inf,inf,inf,inf,inf,inf,inf,inf,inf,inf,inf,inf,inf,inf,inf,inf,inf,inf,inf,inf,inf,inf,inf,inf,inf,inf,inf,inf,inf,inf,inf,inf,inf,inf,inf,inf,inf,inf,inf,inf,inf,inf,inf,inf,inf,inf,inf,inf,inf,inf,inf,inf,inf,inf,inf,inf,inf,inf,inf,inf,inf,inf,inf,inf,inf,inf,inf,inf,inf,inf,inf,inf,inf,inf,inf,inf,inf,inf,inf,inf,inf,inf,inf,inf,inf,inf,inf,inf,inf,inf,inf,inf,inf,inf,8.26886,8.22986,8.21818,8.22643,8.23769,8.22606,8.22949,8.23277,8.25593,8.26464,8.26786,8.30118,8.30839,8.3212,8.35243,8.36933,8.38889,8.44889,8.47998,8.52552,8.55374,8.59032,8.62864,8.68914,8.76883,8.80688,inf,inf,inf,inf,inf,inf,inf,2.88498,2.83369,2.72867,2.65718,2.58963,2.49805,2.44385,2.4065,2.32933,2.27285,2.29542,2.31605,2.37562,2.4082,2.44113,2.75537,2.80196,2.85975,2.92113,2.97847,3.03458,3.08833,3.15342,3.22608,3.30584,3.38498,3.46264,3.56416,3.65417,3.68492,3.63898,3.61933,3.59409,3.54341,1.57357,1.5531,1.5579,1.54342,1.51376,1.52363,1.4947,1.49821,1.48968,1.47702,1.45217,1.47966,1.45503,1.42697,1.44017,1.44865,1.41822,1.42195,1.41921
1.42397,1.43023,1.43557,1.43687,1.42767,1.43356,1.4215,1.45079,1.42694,1.43856,1.45824,1.43804,1.45909,1.45822,1.45115,1.47156,1.44854,1.48566,1.49048,1.48416,1.48862,1.48609,1.49855,1.51015,1.51937,1.51999,1.53301,1.53022,1.57447,1.59481,1.59012,1.59639,1.60105,1.96365,1.96259,1.98022,2.02388,2.05866,2.06645,2.11184,2.11811,2.14945,2.18174,2.20769,2.22679,2.28357,2.30857,2.36254,2.3874,2.43413,2.48499,2.49531,2.46694,2.42603,2.3828,2.36584,2.33572,2.38651,2.46395,2.52393,2.48701,2.4543,2.43493,2.39442,2.39308,2.36636,2.32973,2.32307,2.29774,2.27453,2.2675,2.23744,2.22899,2.20141,2.1798,2.18626,2.17217,2.16936,2.16763,2.16533,2.136,2.1192,2.11966,2.10183,2.10125,2.10074,2.10326,2.09997,2.09281,2.08143,2.0681,2.08359,2.08703,2.06504,2.06719,2.06327,2.07379,2.06538,2.07092,2.09171,2.08741,2.09598,2.09819,2.086,2.12195,2.12168,2.14571,2.14133,2.14166,2.14826,2.16587,2.17407,inf,inf,inf,inf,inf,inf,inf,inf,inf,inf,inf,inf,inf,inf,inf,inf,inf,inf,inf,inf,inf,inf,inf,inf,inf,inf,inf,inf,inf,inf,inf,inf,inf,inf,inf,inf,inf,inf,inf,inf,inf,inf,inf,inf,inf,inf,inf,inf,inf,inf,inf,inf,inf,inf,inf,inf,inf,inf,inf,inf,inf,inf,inf,inf,inf,inf,inf,inf,inf,inf,inf,inf,inf,inf,inf,inf,inf,inf,inf,inf,inf,inf,inf,inf,inf,inf,inf,inf,inf,inf,inf,inf,inf,inf,inf,inf,inf,inf,inf,inf,inf,inf,inf,inf,inf,inf,inf,inf,inf,inf,inf,inf,inf,inf,inf,inf,inf,inf,inf,inf,inf,inf,inf,inf,inf,inf,inf,inf,inf,inf,inf,inf,inf,inf,inf,inf,inf,inf,inf,inf,inf,inf,inf,inf,inf,inf,inf,inf,inf,inf,inf,inf,inf,inf,inf,inf,inf,7.83429,7.84231,7.83575,7.84305,7.81932,7.82946,7.82045,7.85132,7.86656,7.86332,7.88374,7.89588,7.89863,7.91403,7.93148,7.96672,7.99732,8.0461,8.06907,8.09199,8.14846,8.18346,8.24036,8.29008,8.33515,8.38613,8.45165,inf,inf,inf,inf,inf,inf,inf,inf,inf,inf,inf,2.5252,2.48547,2.4143,2.35816,2.33509,2.26697,2.19906,2.16369,2.12535,2.08643,2.0541,2.01431,2.009,2.04742,2.0921,2.11707,2.16819,2.52193,2.58494,2.65182,2.72875,2.79202,2.84337,2.91699,3.01325,3.09816,3.18145,3.29686,3.40093,3.52301,3.51256,3.46363,3.47333,3.4251,3.40585,3.38206,3.36057,3.33478,3.32363,3.29157,3.28861,3.27055,3.23737,1.458,1.45281,1.45175,1.44116,1.45525,1.43604,1.43845,1.42026,1.41879,1.43011
1.42202,1.43451,1.42099,1.45505,1.42897,1.44273,1.45435,1.4489,1.44498,1.45409,1.45757,1.47799,1.47176,1.48162,1.48247,1.48028,1.50187,1.49515,1.5226,1.52607,1.55023,1.551,1.57139,1.56302,1.57885,1.59006,1.60313,1.62027,1.97368,1.99505,2.01109,2.04884,2.05604,2.06619,2.10641,2.12803,2.15632,2.18703,2.19578,2.23408,2.28867,2.3336,2.35636,2.38946,2.44357,2.48862,2.47006,2.45265,2.41907,2.35929,2.35525,2.35821,2.4092,2.472,2.52323,2.48673,2.47557,2.4297,2.39519,2.38355,2.34829,2.33452,2.30885,2.28754,2.28526,2.25435,2.23152,2.21837,2.21706,2.20134,2.19065,2.182,2.16058,2.15003,2.13219,2.1388,2.12368,2.11781,2.10618,2.1121,2.10009,2.08502,2.08617,2.09718,2.07595,2.05756,2.05956,2.0702,2.06402,2.08003,2.0687,2.07698,2.0791,2.06847,2.07195,2.10469,2.08766,2.08484,2.09644,2.12086,2.12615,2.11481,2.13526,2.14342,2.16493,2.15813,2.17755,inf,inf,inf,inf,inf,inf,inf,inf,inf,inf,inf,inf,inf,inf,inf,inf,inf,inf,inf,inf,inf,inf,inf,inf,inf,inf,inf,inf,inf,inf,inf,inf,inf,inf,inf,inf,inf,inf,inf,inf,inf,inf,inf,inf,inf,inf,inf,inf,inf,inf,inf,inf,inf,inf,inf,inf,inf,inf,inf,inf,inf,inf,inf,inf,inf,inf,inf,inf,inf,inf,inf,inf,inf,inf,inf,inf,inf,inf,inf,inf,inf,inf,inf,inf,inf,inf,inf,inf,inf,inf,inf,inf,inf,inf,inf,inf,inf,inf,inf,inf,inf,inf,inf,inf,inf,inf,inf,inf,inf,inf,inf,inf,inf,inf,inf,inf,inf,inf,inf,inf,inf,inf,inf,inf,inf,inf,inf,inf,inf,inf,inf,inf,inf,inf,inf,inf,inf,inf,inf,inf,inf,inf,inf,inf,inf,inf,inf,inf,inf,inf,inf,inf,inf,inf,inf,inf,7.84258,7.83511,7.83073,7.81795,7.81479,7.82203,7.83912,7.83823,7.85068,7.83328,7.87479,7.87913,7.8918,7.92037,7.94382,7.95384,7.98506,8.03146,8.04837,8.09919,8.11896,8.1453,8.19736,8.24455,8.29952,8.35457,8.42109,8.45861,inf,inf,inf,inf,inf,inf,inf,inf,inf,inf,2.59252,2.51513,2.44963,2.38925,2.35495,2.28554,2.2433,2.20705,2.14013,2.12947,2.09749,2.0297,1.98971,2.03385,2.0608,2.08329,2.13689,2.18444,2.55371,2.61989,2.67435,2.74432,2.79706,2.88385,2.94505,3.03708,3.12008,3.21938,3.32031,3.44522,3.5173,3.49359,3.45967,3.44804,3.40957,3.37587,3.38295,3.32481,3.35059,3.30823,3.31132,3.27736,3.25429,3.25083,1.4478,1.45792,1.45401,1.45049,1.43626,1.43585,1.44015,1.45032,1.42817,1.42519,1.42113,1.43108,1.42047,1.45584,1.40719
1.41823,1.43794,1.43642,1.44023,1.44614,1.46336,1.45731,1.45003,1.48168,1.4995,1.48358,1.49232,1.50371,1.50811,1.51642,1.52503,1.53535,1.56513,1.55183,1.58223,1.59161,1.60559,1.60791,1.62575,1.96614,1.981,1.99515,2.05034,2.05981,2.07875,2.09357,2.13923,2.16955,2.1714,2.21132,2.27407,2.27352,2.30686,2.35689,2.37359,2.44995,2.50054,2.48457,2.45039,2.40508,2.38788,2.3628,2.3656,2.40864,2.45993,2.51229,2.47753,2.45834,2.42735,2.40579,2.36813,2.35599,2.34046,2.31103,2.28786,2.27878,2.24056,2.23834,2.23679,2.20866,2.22147,2.18237,2.17401,2.15465,2.13798,2.13349,2.12304,2.11278,2.11874,2.11914,2.07546,2.08045,2.08382,2.08829,2.07,2.08742,2.07515,2.0619,2.07589,2.06471,2.0856,2.07711,2.07978,2.07542,2.0676,2.08868,2.10143,2.09087,2.09895,2.0899,2.09737,2.12903,2.12285,2.13269,2.14858,2.15126,2.18054,2.18352,inf,inf,inf,inf,inf,inf,inf,inf,inf,inf,inf,inf,inf,inf,inf,inf,inf,inf,inf,inf,inf,inf,inf,inf,inf,inf,inf,inf,inf,inf,inf,inf,inf,inf,inf,inf,inf,inf,inf,inf,inf,inf,inf,inf,inf,inf,inf,inf,inf,inf,inf,inf,inf,inf,inf,inf,inf,inf,inf,inf,inf,inf,inf,inf,inf,inf,inf,inf,inf,inf,inf,inf,inf,inf,inf,inf,inf,inf,inf,inf,inf,inf,inf,inf,inf,inf,inf,inf,inf,inf,inf,inf,inf,inf,inf,inf,inf,inf,inf,inf,inf,inf,inf,inf,inf,inf,inf,inf,inf,inf,inf,inf,inf,inf,inf,inf,inf,inf,inf,inf,inf,inf,inf,inf,inf,inf,inf,inf,inf,inf,inf,inf,inf,inf,inf,inf,inf,inf,inf,inf,inf,inf,inf,inf,inf,inf,inf,inf,inf,inf,inf,inf,inf,inf,inf,inf,7.85492,7.85308,7.82962,7.8374,7.83347,7.82506,7.82524,7.83109,7.83831,7.8422,7.86433,7.88709,7.89401,7.91142,7.9276,7.95533,7.97622,8.01424,8.04755,8.07435,8.12537,8.14736,8.20773,8.24489,8.29701,8.3497,8.41714,8.46862,inf,inf,inf,inf,inf,inf,inf,inf,inf,inf,2.58775,2.51406,2.465,2.38092,2.35184,2.29294,2.24445,2.18788,2.1451,2.10288,2.07595,2.0446,2.00411,2.0024,2.03343,2.10102,2.12486,2.19168,2.54497,2.59259,2.68399,2.73911,2.80178,2.87828,2.94501,3.02631,3.11553,3.22575,3.33516,3.43326,3.5149,3.49366,3.48045,3.44809,3.42634,3.38515,3.3566,3.32828,3.32916,3.31772,3.30274,3.26382,3.24934,3.24304,1.46846,1.4486,1.46187,1.44819,1.44585,1.43805,1.44784,1.44312,1.42959,1.41467,1.41386,1.42744,1.41258,1.43518,1.42014,1.42648,1.41969,1.44981,1.43247
1.4046,1.4052,1.42322,1.3922,1.39764,1.39166,1.40581,1.40302,1.42587,1.39231,1.39881,1.39202,1.40029,1.40077,1.39914,1.4051,1.41148,1.42546,1.42956,1.43137,1.45132,1.45473,1.45534,1.47637,1.47326,1.492,1.49822,1.50215,1.51434,1.51898,1.52993,1.55443,1.54904,1.56439,1.61112,1.59953,1.60298,1.64387,1.99491,2.02567,2.03951,2.0661,2.09171,2.12357,2.14362,2.19734,2.23886,2.24746,2.27539,2.32046,2.36996,2.41466,2.45737,2.49214,2.54551,2.54115,2.50537,2.48677,2.44833,2.4257,2.42012,2.50328,2.55013,2.58946,2.53796,2.51991,2.49854,2.4705,2.43274,2.43312,2.39103,2.3936,2.35116,2.3494,2.33768,2.30887,2.29632,2.28426,2.25759,2.2721,2.25388,2.24372,2.23021,2.23793,2.20185,2.1978,2.2027,2.20801,2.20376,2.18961,2.17444,2.1861,2.1708,2.14887,2.15174,2.15667,2.18199,2.18489,2.18593,2.18839,2.15987,2.18618,2.18448,2.19342,2.20911,2.21202,2.2098,2.23147,2.23948,2.24241,2.24226,2.25959,2.27252,inf,inf,inf,inf,inf,inf,inf,inf,inf,inf,inf,inf,inf,inf,inf,inf,inf,inf,inf,inf,inf,inf,inf,inf,inf,inf,inf,inf,inf,inf,inf,inf,inf,inf,inf,inf,inf,inf,inf,inf,inf,inf,inf,inf,inf,inf,inf,inf,inf,inf,inf,inf,inf,inf,inf,inf,inf,inf,inf,inf,inf,inf,inf,inf,inf,inf,inf,inf,inf,inf,inf,inf,inf,inf,inf,inf,inf,inf,inf,inf,inf,inf,inf,inf,inf,inf,inf,inf,inf,inf,inf,inf,inf,inf,inf,inf,inf,inf,inf,inf,inf,inf,inf,inf,inf,inf,inf,inf,inf,inf,inf,inf,inf,inf,inf,inf,inf,inf,inf,inf,inf,inf,inf,inf,inf,inf,inf,inf,inf,inf,inf,inf,inf,inf,inf,inf,inf,inf,inf,inf,inf,inf,inf,inf,inf,inf,inf,inf,inf,inf,inf,inf,inf,inf,inf,inf,inf,7.76696,7.73663,7.74734,7.71456,7.73031,7.73851,7.72064,7.73531,7.73303,7.73718,7.75517,7.77589,7.78284,7.82549,7.82572,7.83235,7.86327,7.91616,7.92904,7.97373,7.99864,8.05046,8.08643,8.13883,8.20425,8.25058,8.27018,8.38088,inf,inf,inf,inf,inf,inf,inf,inf,inf,inf,inf,2.46902,2.40306,2.34703,2.28967,2.2332,2.20264,2.14223,2.10561,2.08205,2.01689,1.97119,1.95443,1.93239,1.89042,1.94382,1.98944,2.01783,2.06216,2.11182,2.49834,2.56859,2.62542,2.69266,2.7686,2.86076,2.93726,3.00488,3.1243,3.21643,3.3344,3.4688,3.41892,3.4209,3.41084,3.34124,3.34201,3.32116,3.3049,3.27111,3.26103,3.22559,3.24098,3.21583,3.19039,3.20043,3.17289,1.43634,1.41234,1.41954,1.40562,1.41627
1.48775,1.48274,1.47124,1.47914,1.47666,1.4893,1.50879,1.48038,1.48059,1.48772,1.48925,1.50487,1.49975,1.49031,1.51985,1.5271,1.52725,1.5335,1.54418,1.55864,1.54759,1.57109,1.5826,1.5974,1.59705,1.62319,1.63377,1.63311,1.65117,1.66197,1.69104,1.71879,1.71403,1.74162,1.76522,2.12268,2.13739,2.17009,2.19216,2.22104,2.2547,2.30832,2.30484,2.36529,2.39185,2.44268,2.47094,2.50473,2.57556,2.625,2.66798,2.66638,2.63154,2.58155,2.56518,2.51899,2.55752,2.63062,2.69998,2.69469,2.62498,2.61376,2.595,2.56373,2.5463,2.51116,2.50475,2.47158,2.46875,2.44112,2.43486,2.40129,2.38539,2.40772,2.37217,2.34939,2.35452,2.33677,2.34125,2.33249,2.32265,2.28539,2.28515,2.29364,2.25837,2.27708,2.26305,2.29323,2.26307,2.25195,2.26656,2.26513,2.26321,2.25174,2.25887,2.26909,2.27947,2.26932,2.27822,2.29768,2.29928,2.29907,2.3149,2.31818,2.32863,2.30697,2.33529,inf,inf,inf,inf,inf,inf,inf,inf,inf,inf,inf,inf,inf,inf,inf,inf,inf,inf,inf,inf,inf,inf,inf,inf,inf,inf,inf,inf,inf,inf,inf,inf,inf,inf,inf,inf,inf,inf,inf,inf,inf,inf,inf,inf,inf,inf,inf,inf,inf,inf,inf,inf,inf,inf,inf,inf,inf,inf,inf,inf,inf,inf,inf,inf,inf,inf,inf,inf,inf,inf,inf,inf,inf,inf,inf,inf,inf,inf,inf,inf,inf,inf,inf,inf,inf,inf,inf,inf,inf,inf,inf,inf,inf,inf,inf,inf,inf,inf,inf,inf,inf,inf,inf,inf,inf,inf,inf,inf,inf,inf,inf,inf,inf,inf,inf,inf,inf,inf,inf,inf,inf,inf,inf,inf,inf,inf,inf,inf,inf,inf,inf,inf,inf,inf,inf,inf,inf,inf,inf,inf,inf,inf,inf,inf,inf,inf,inf,inf,inf,inf,inf,inf,inf,inf,inf,inf,inf,inf,inf,inf,7.66198,7.64505,7.64375,7.62968,7.6334,7.63113,7.6258,7.66249,7.66492,7.67707,7.68873,7.68462,7.70922,7.74348,7.7457,7.78854,7.80634,7.84885,7.88224,7.9465,7.96173,8.00282,8.05123,8.09267,8.13744,8.21198,8.2623,8.29892,inf,inf,inf,inf,inf,inf,inf,inf,inf,inf,inf,inf,inf,2.43926,2.38638,2.33352,2.28195,2.22971,2.19438,2.17432,2.10762,2.06691,2.06091,2.01693,1.97992,1.96538,1.92182,1.91508,1.97621,2.00823,2.07085,2.12534,2.53707,2.59081,2.67941,2.74534,2.82759,2.94486,3.02344,3.13159,3.22816,3.36117,3.47663,3.46567,3.43547,3.44303,3.41272,3.38584,3.35701,3.33244,3.34845,3.30081,3.29602,3.29458,3.29264,3.27564,3.25158,3.2535,3.23902,3.23476,1.48002,1.49387,1.48031,1.48234,1.48024
1.47624,1.46219,1.49264,1.48328,1.48058,1.48921,1.47472,1.46971,1.47752,1.5068,1.4881,1.49935,1.49441,1.52476,1.52343,1.53421,1.54981,1.53847,1.53412,1.55366,1.56689,1.59143,1.57244,1.59831,1.60034,1.6192,1.6407,1.65391,1.6439,1.66264,1.68657,1.69355,1.73606,1.75877,1.76712,1.78387,1.81638,2.19374,2.21142,2.23995,2.2912,2.28744,2.33739,2.37724,2.40593,2.44969,2.51169,2.55195,2.59585,2.65006,2.69524,2.75512,2.71375,2.66316,2.62499,2.59473,2.59503,2.65184,2.73307,2.73718,2.70454,2.67918,2.6516,2.65345,2.61064,2.5833,2.5641,2.53669,2.52378,2.51554,2.49375,2.48015,2.4538,2.44449,2.42733,2.40669,2.39098,2.37769,2.38048,2.36611,2.37992,2.35247,2.36285,2.3493,2.34684,2.32741,2.34252,2.3302,2.3295,2.3311,2.31808,2.33029,2.31956,2.32554,2.33096,2.32128,2.33206,2.33075,2.31884,2.35098,2.35358,2.37751,2.35336,2.36225,2.38127,2.37875,inf,inf,inf,inf,inf,inf,inf,inf,inf,inf,inf,inf,inf,inf,inf,inf,inf,inf,inf,inf,inf,inf,inf,inf,inf,inf,inf,inf,inf,inf,inf,inf,inf,inf,inf,inf,inf,inf,inf,inf,inf,inf,inf,inf,inf,inf,inf,inf,inf,inf,inf,inf,inf,inf,inf,inf,inf,inf,inf,inf,inf,inf,inf,inf,inf,inf,inf,inf,inf,inf,inf,inf,inf,inf,inf,inf,inf,inf,inf,inf,inf,inf,inf,inf,inf,inf,inf,inf,inf,inf,inf,inf,inf,inf,inf,inf,inf,inf,inf,inf,inf,inf,inf,inf,inf,inf,inf,inf,inf,inf,inf,inf,inf,inf,inf,inf,inf,inf,inf,inf,inf,inf,inf,inf,inf,inf,inf,inf,inf,inf,inf,inf,inf,inf,inf,inf,inf,inf,inf,inf,inf,inf,inf,inf,inf,inf,inf,inf,inf,inf,inf,inf,inf,inf,inf,inf,inf,inf,inf,inf,7.60601,7.58474,7.58367,7.5856,7.5732,7.58601,7.56672,7.56867,7.59544,7.59093,7.61649,7.62771,7.64626,7.65985,7.67752,7.69393,7.73076,7.76685,7.81095,7.8344,7.87223,7.89953,7.94778,7.99298,8.05053,8.11928,8.14572,8.21906,8.28483,inf,inf,inf,inf,inf,inf,inf,inf,inf,inf,inf,inf,inf,2.43761,2.37604,2.31614,2.28774,2.24521,2.19036,2.14377,2.09587,2.08047,2.02131,2.01284,1.96513,1.93735,1.91704,1.88385,1.8929,1.91929,1.96747,2.02471,2.07859,2.50192,2.58768,2.66129,2.74067,2.81958,2.92256,3.03393,3.12772,3.24949,3.38209,3.48052,3.4606,3.42447,3.42004,3.37077,3.36229,3.34246,3.33447,3.31321,3.30461,3.30023,3.28843,3.26465,3.2665,3.23265,3.23076,3.23904,3.22131,3.21801,1.4726,1.48983,1.49193
1.48222,1.48435,1.45897,1.464,1.47664,1.50018,1.47005,1.47084,1.48607,1.50158,1.5143,1.50535,1.50856,1.49925,1.5079,1.50637,1.52982,1.53116,1.55721,1.57192,1.58892,1.58717,1.57797,1.57191,1.60431,1.63364,1.63333,1.66345,1.65235,1.69268,1.70316,1.69924,1.7392,1.7692,1.76947,1.79622,1.82081,2.20055,2.22505,2.25651,2.29022,2.32604,2.34523,2.39895,2.41638,2.47691,2.51925,2.56724,2.60647,2.66588,2.745,2.77535,2.72099,2.70331,2.65836,2.63246,2.64544,2.70425,2.75817,2.77122,2.75438,2.72906,2.69452,2.68279,2.65464,2.615,2.62234,2.60642,2.5646,2.55344,2.53855,2.52446,2.49772,2.48935,2.47981,2.47601,2.46834,2.45951,2.45224,2.43206,2.40769,2.41145,2.39977,2.40842,2.37558,2.39317,2.41333,2.39076,2.37835,2.37664,2.37658,2.38452,2.40227,2.3882,2.37417,2.39635,2.4139,2.4113,2.4129,2.40989,2.42449,2.42366,2.45315,2.44401,2.48482,inf,inf,inf,inf,inf,inf,inf,inf,inf,inf,inf,inf,inf,inf,inf,inf,inf,inf,inf,inf,inf,inf,inf,inf,inf,inf,inf,inf,inf,inf,inf,inf,inf,inf,inf,inf,inf,inf,inf,inf,inf,inf,inf,inf,inf,inf,inf,inf,inf,inf,inf,inf,inf,inf,inf,inf,inf,inf,inf,inf,inf,inf,inf,inf,inf,inf,inf,inf,inf,inf,inf,inf,inf,inf,inf,inf,inf,inf,inf,inf,inf,inf,inf,inf,inf,inf,inf,inf,inf,inf,inf,inf,inf,inf,inf,inf,inf,inf,inf,inf,inf,inf,inf,inf,inf,inf,inf,inf,inf,inf,inf,inf,inf,inf,inf,inf,inf,inf,inf,inf,inf,inf,inf,inf,inf,inf,inf,inf,inf,inf,inf,inf,inf,inf,inf,inf,inf,inf,inf,inf,inf,inf,inf,inf,inf,inf,inf,inf,inf,inf,inf,inf,inf,inf,inf,inf,inf,inf,inf,inf,7.54678,7.52643,7.52299,7.50328,7.53038,7.53053,7.52847,7.51846,7.5324,7.52206,7.5623,7.56729,7.57233,7.58417,7.62291,7.64611,7.65997,7.67887,7.73501,7.75581,7.79329,7.82865,7.88932,7.93521,7.97281,8.02546,8.087,8.13428,8.20966,inf,inf,inf,inf,inf,inf,inf,inf,inf,inf,inf,inf,inf,inf,2.36248,2.30647,2.24911,2.22721,2.18397,2.12882,2.10303,2.06963,2.01813,2.00646,1.98102,1.93653,1.90095,1.88602,1.87299,1.85281,1.85039,1.90382,1.95964,2.01311,2.46334,2.52777,2.58276,2.68976,2.77459,2.89235,2.98818,3.10784,3.2326,3.36206,3.4502,3.41503,3.39668,3.36431,3.34803,3.33663,3.30951,3.30415,3.28661,3.27766,3.25705,3.23559,3.24491,3.2379,3.2117,3.22586,3.21196,3.21941,3.19896,3.20431,3.21498,1.47932
3.21152,3.19274,3.17927,3.19891,1.46655,1.46216,1.47733,1.47273,1.46276,1.48361,1.47089,1.49498,1.47256,1.49576,1.49295,1.51652,1.51856,1.5248,1.52515,1.54541,1.56076,1.5607,1.56543,1.58201,1.57107,1.60741,1.59089,1.63229,1.64633,1.64769,1.67665,1.67475,1.71484,1.71156,1.74743,1.75452,1.79472,1.78735,1.81641,1.84884,1.86323,2.24536,2.28823,2.31244,2.33898,2.41191,2.4296,2.47216,2.51022,2.57493,2.61702,2.67321,2.7281,2.78572,2.81909,2.76894,2.74646,2.7154,2.66717,2.70869,2.78518,2.85179,2.82646,2.81384,2.76144,2.74425,2.72093,2.70377,2.68083,2.6525,2.64133,2.6113,2.58797,2.57249,2.56655,2.5486,2.55091,2.53877,2.52788,2.48778,2.5111,2.48641,2.47098,2.48348,2.48277,2.47408,2.47434,2.46493,2.45433,2.45634,2.44904,2.4491,2.45407,2.43643,2.44809,2.45598,2.45253,2.44968,2.46692,2.47376,2.46635,2.48032,2.4866,2.50876,2.50531,2.5216,2.52469,inf,inf,inf,inf,inf,inf,inf,inf,inf,inf,inf,inf,inf,inf,inf,inf,inf,inf,inf,inf,inf,inf,inf,inf,inf,inf,inf,inf,inf,inf,inf,inf,inf,inf,inf,inf,inf,inf,inf,inf,inf,inf,inf,inf,inf,inf,inf,inf,inf,inf,inf,inf,inf,inf,inf,inf,inf,inf,inf,inf,inf,inf,inf,inf,inf,inf,inf,inf,inf,inf,inf,inf,inf,inf,inf,inf,inf,inf,inf,inf,inf,inf,inf,inf,inf,inf,inf,inf,inf,inf,inf,inf,inf,inf,inf,inf,inf,inf,inf,inf,inf,inf,inf,inf,inf,inf,inf,inf,inf,inf,inf,inf,inf,inf,inf,inf,inf,inf,inf,inf,inf,inf,inf,inf,inf,inf,inf,inf,inf,inf,inf,inf,inf,inf,inf,inf,inf,inf,inf,inf,inf,inf,inf,inf,inf,inf,inf,inf,inf,inf,inf,inf,inf,inf,inf,inf,inf,inf,inf,inf,7.46164,7.47509,7.45191,7.46143,7.45021,7.43324,7.46769,7.46336,7.46414,7.46524,7.49275,7.50682,7.5249,7.53335,7.55436,7.57184,7.60919,7.66602,7.68147,7.70512,7.72858,7.77809,7.83273,7.84935,7.93126,7.9575,8.01487,8.06586,8.13273,inf,inf,inf,inf,inf,inf,inf,inf,inf,inf,inf,inf,inf,inf,inf,2.29713,2.24259,2.21409,2.16764,2.12761,2.09471,2.05961,2.01758,1.99492,1.97052,1.92979,1.89614,1.86626,1.84025,1.81287,1.81189,1.78399,1.84926,1.89137,1.96251,2.01784,2.49182,2.56628,2.67688,2.74342,2.84847,2.95763,3.10079,3.21249,3.37265,3.40991,3.37779,3.3651,3.35408,3.3537,3.31128,3.29425,3.27916,3.28244,3.25077,3.25672,3.22363,3.23475,3.2169,3.23319,3.20048,3.20507,3.21422,3.1987
1.47549,1.4818,1.48322,1.47872,1.48033,1.4912,1.49339,1.48809,1.50857,1.52141,1.51136,1.52335,1.55608,1.5446,1.56298,1.54046,1.57877,1.58028,1.60802,1.60405,1.6151,1.65128,1.65355,1.66521,1.68549,1.69032,1.72026,1.73174,1.74005,1.78426,1.79691,1.80902,1.82182,1.85495,2.25679,2.27731,2.2991,2.34202,2.38162,2.41641,2.45233,2.49282,2.57215,2.60105,2.68452,2.70927,2.77433,2.82034,2.76263,2.74689,2.7093,2.67988,2.7127,2.76813,2.85892,2.84022,2.8061,2.75825,2.75301,2.72387,2.70822,2.69404,2.65874,2.63976,2.62696,2.62239,2.59704,2.57935,2.57903,2.54216,2.54348,2.52422,2.50878,2.49278,2.49517,2.49215,2.48174,2.46183,2.46949,2.45518,2.45786,2.45533,2.45891,2.46003,2.44854,2.44111,2.45806,2.44899,2.45494,2.45834,2.4596,2.4592,2.48702,2.47402,2.49492,2.49678,2.48859,2.50756,2.51463,2.53148,inf,inf,inf,inf,inf,inf,inf,inf,inf,inf,inf,inf,inf,inf,inf,inf,inf,inf,inf,inf,inf,inf,inf,inf,inf,inf,inf,inf,inf,inf,inf,inf,inf,inf,inf,inf,inf,inf,inf,inf,inf,inf,inf,inf,inf,inf,inf,inf,inf,inf,inf,inf,inf,inf,inf,inf,inf,inf,inf,inf,inf,inf,inf,inf,inf,inf,inf,inf,inf,inf,inf,inf,inf,inf,inf,inf,inf,inf,inf,inf,inf,inf,inf,inf,inf,inf,inf,inf,inf,inf,inf,inf,inf,inf,inf,inf,inf,inf,inf,inf,inf,inf,inf,inf,inf,inf,inf,inf,inf,inf,inf,inf,inf,inf,inf,inf,inf,inf,inf,inf,inf,inf,inf,inf,inf,inf,inf,inf,inf,inf,inf,inf,inf,inf,inf,inf,inf,inf,inf,inf,inf,inf,inf,inf,inf,inf,inf,inf,inf,inf,inf,inf,inf,inf,inf,inf,inf,inf,inf,inf,7.49167,7.46491,7.45113,7.45957,7.44566,7.46478,7.4576,7.44951,7.47948,7.47398,7.49298,7.49813,7.52311,7.54167,7.56186,7.59283,7.59441,7.65026,7.67069,7.69572,7.72574,7.76937,7.82595,7.86351,7.90926,7.95434,8.00615,8.0748,8.14989,inf,inf,inf,inf,inf,inf,inf,inf,inf,inf,inf,inf,inf,inf,inf,2.29698,2.2568,2.20602,2.15686,2.14105,2.08673,2.04928,2.0191,1.98363,1.95122,1.93319,1.90498,1.87724,1.84795,1.81622,1.80323,1.78526,1.8362,1.88256,1.95877,2.00671,2.46297,2.56564,2.631,2.73594,2.82326,2.95392,3.06358,3.18466,3.35745,3.42073,3.39869,3.38802,3.36079,3.33655,3.32541,3.27812,3.28026,3.2722,3.2912,3.25797,3.24344,3.2344,3.24029,3.21531,3.20878,3.20823,3.22101,3.19929,3.18395,3.20506,3.20641,1.48143,1.45712,1.46121,1.4687
3.21101,3.19084,3.21,3.19325,3.18999,3.17924,1.57205,1.46939,1.46182,1.47228,1.47694,1.48655,1.49741,1.49597,1.48908,1.5104,1.51858,1.51827,1.49674,1.52141,1.53175,1.53382,1.54065,1.55965,1.55377,1.55028,1.58227,1.56684,1.6116,1.62648,1.63413,1.64492,1.66517,1.67186,1.68354,1.71265,1.72105,1.73218,1.76283,1.79622,1.80965,1.83876,1.86024,2.224,2.2771,2.29179,2.33365,2.36142,2.4172,2.43818,2.47131,2.53765,2.59407,2.63765,2.69316,2.75977,2.81141,2.79928,2.76991,2.70919,2.68762,2.68716,2.7364,2.8183,2.83038,2.8129,2.79468,2.76384,2.7324,2.71242,2.68038,2.67197,2.65354,2.63063,2.60923,2.58155,2.58382,2.56417,2.55648,2.56012,2.54303,2.51501,2.52769,2.50164,2.47068,2.4771,2.48587,2.45988,2.45745,2.47674,2.45648,2.45586,2.45284,2.43491,2.43995,2.44392,2.44978,2.43678,2.44959,2.45639,2.45405,2.46889,2.47025,2.48198,2.48212,2.48578,2.50135,2.51232,2.52076,inf,inf,inf,inf,inf,inf,inf,inf,inf,inf,inf,inf,inf,inf,inf,inf,inf,inf,inf,inf,inf,inf,inf,inf,inf,inf,inf,inf,inf,inf,inf,inf,inf,inf,inf,inf,inf,inf,inf,inf,inf,inf,inf,inf,inf,inf,inf,inf,inf,inf,inf,inf,inf,inf,inf,inf,inf,inf,inf,inf,inf,inf,inf,inf,inf,inf,inf,inf,inf,inf,inf,inf,inf,inf,inf,inf,inf,inf,inf,inf,inf,inf,inf,inf,inf,inf,inf,inf,inf,inf,inf,inf,inf,inf,inf,inf,inf,inf,inf,inf,inf,inf,inf,inf,inf,inf,inf,inf,inf,inf,inf,inf,inf,inf,inf,inf,inf,inf,inf,inf,inf,inf,inf,inf,inf,inf,inf,inf,inf,inf,inf,inf,inf,inf,inf,inf,inf,inf,inf,inf,inf,inf,inf,inf,inf,inf,inf,inf,inf,inf,inf,inf,inf,inf,inf,inf,inf,inf,inf,inf,inf,7.47902,7.46133,7.4494,7.44133,7.45765,7.44452,7.4726,7.44249,7.46762,7.48031,7.49768,7.51812,7.5297,7.54293,7.57312,7.58255,7.59728,7.65723,7.68322,7.71968,7.76258,7.80085,7.83512,7.89769,7.93682,7.99065,8.0486,8.09675,8.1538,inf,inf,inf,inf,inf,inf,inf,inf,inf,inf,inf,inf,inf,inf,2.32722,2.27719,2.23629,2.16431,2.14818,2.11052,2.06974,2.02563,1.98239,1.96167,1.92745,1.90994,1.88908,1.88532,1.83345,1.8122,1.7976,1.83238,1.88419,1.92342,1.96181,2.4277,2.52351,2.60741,2.68658,2.7998,2.89849,3.00566,3.13079,3.27645,3.41322,3.40632,3.38827,3.34707,3.34282,3.33437,3.30705,3.29597,3.28075,3.26364,3.27137,3.24751,3.23986,3.22477,3.23017,3.224,3.20981
3.29352,3.29649,3.30816,1.55153,1.53595,1.55014,1.58378,1.56552,1.57293,1.57849,1.56958,1.57759,1.57796,1.57342,1.57707,1.59759,1.60351,1.60818,1.60843,1.62362,1.65211,1.65586,1.65404,1.67212,1.68864,1.70206,1.69555,1.72527,1.72385,1.74957,1.78127,1.78246,1.8068,1.82963,1.83562,1.83815,1.86584,1.91605,1.90938,2.31903,2.349,2.37273,2.39778,2.44251,2.47294,2.52771,2.57651,2.62751,2.65472,2.70176,2.73871,2.8011,2.86472,2.83672,2.77412,2.76319,2.73565,2.72508,2.79618,2.87597,2.86873,2.82228,2.80776,2.77522,2.76418,2.71831,2.7135,2.68205,2.67522,2.65607,2.62313,2.60187,2.59954,2.57145,2.55296,2.54814,2.54015,2.52796,2.50498,2.51297,2.4815,2.50101,2.46633,2.46886,2.45763,2.45127,2.45531,2.44817,2.45992,2.44607,2.44043,2.43904,2.45145,2.44305,2.45375,2.44271,2.4396,2.43496,2.46526,2.45364,2.46982,2.45928,2.46105,2.48672,2.49289,inf,inf,inf,inf,inf,inf,inf,inf,inf,inf,inf,inf,inf,inf,inf,inf,inf,inf,inf,inf,inf,inf,inf,inf,inf,inf,inf,inf,inf,inf,inf,inf,inf,inf,inf,inf,inf,inf,inf,inf,inf,inf,inf,inf,inf,inf,inf,inf,inf,inf,inf,inf,inf,inf,inf,inf,inf,inf,inf,inf,inf,inf,inf,inf,inf,inf,inf,inf,inf,inf,inf,inf,inf,inf,inf,inf,inf,inf,inf,inf,inf,inf,inf,inf,inf,inf,inf,inf,inf,inf,inf,inf,inf,inf,inf,inf,inf,inf,inf,inf,inf,inf,inf,inf,inf,inf,inf,inf,inf,inf,inf,inf,inf,inf,inf,inf,inf,inf,inf,inf,inf,inf,inf,inf,inf,inf,inf,inf,inf,inf,inf,inf,inf,inf,inf,inf,inf,inf,inf,inf,inf,inf,inf,inf,inf,inf,inf,inf,inf,inf,inf,inf,inf,inf,inf,inf,inf,inf,inf,inf,inf,inf,7.47261,7.47081,7.46656,7.4696,7.4555,7.465,7.47712,7.45888,7.46552,7.51068,7.49366,7.52421,7.53003,7.56537,7.58359,7.58344,7.63286,7.6706,7.6944,7.71673,7.76285,7.79326,7.83372,7.8982,7.92982,7.98386,8.02548,8.11283,8.17477,inf,inf,inf,inf,inf,inf,inf,inf,inf,inf,inf,inf,inf,inf,inf,inf,2.36056,2.30237,2.27876,2.24302,2.18289,2.15558,2.12503,2.11581,2.06749,2.02572,2.01331,1.97312,1.95354,1.91265,1.88948,1.88436,1.88536,1.94446,1.98082,2.05331,2.52739,2.61314,2.69925,2.79667,2.89684,3.01349,3.15668,3.2771,3.42094,3.50191,3.46851,3.45707,3.42989,3.43156,3.39707,3.38899,3.36075,3.37274,3.35311,3.33529,3.30405,3.31745,3.33508,3.27694,3.30216,3.2979,3.28316,3.28731
